ncols         33
nrows         53
xllcorner     0.000000
yllcorner     0.000000
cellsize      1.000000
NODATA_value  -9999.0
13.987100 13.987100 13.987100 13.930600 13.887400 13.842100 13.815600 13.763900 13.691900 13.622300 13.532200 13.451400 13.369000 13.281400 13.211000 13.135500 13.076300 13.020200 12.973500 12.956800 12.928000 12.923700 12.915100 12.919100 12.925000 12.928600 12.947100 12.920700 12.904400 12.883600 12.879500 12.879500 12.879500
13.900000 13.900000 13.900000 13.862900 13.829800 13.796600 13.773200 13.715400 13.638300 13.562000 13.473700 13.390700 13.307000 13.219500 13.139600 13.049000 12.972700 12.915300 12.876800 12.860900 12.842400 12.838400 12.832000 12.828700 12.831300 12.841200 12.862200 12.861500 12.852800 12.832100 12.817100 12.817100 12.817100
13.812900 13.812900 13.812900 13.795200 13.772200 13.751100 13.730800 13.666900 13.584700 13.501700 13.415200 13.330000 13.245000 13.157600 13.068200 12.962500 12.869100 12.810400 12.780100 12.765000 12.756800 12.753100 12.748900 12.738300 12.737600 12.753800 12.777300 12.802300 12.801200 12.780600 12.754700 12.754700 12.754700
13.688200 13.688200 13.688200 13.688700 13.681600 13.674600 13.670800 13.582100 13.500100 13.407600 13.329400 13.236600 13.158700 13.067600 12.988000 12.857500 12.732000 12.688800 12.655800 12.647000 12.646600 12.632800 12.643600 12.609700 12.610100 12.633300 12.677100 12.703900 12.753300 12.669400 12.607600 12.607600 12.607600
13.567600 13.567600 13.567600 13.558000 13.548700 13.536500 13.507500 13.435900 13.347400 13.258900 13.172900 13.086600 13.002300 12.917000 12.826900 12.721700 12.623700 12.547200 12.504200 12.489900 12.479900 12.442400 12.411000 12.414100 12.439500 12.467900 12.499000 12.529200 12.541300 12.521000 12.489600 12.489600 12.489600
13.427600 13.427600 13.427600 13.411700 13.391500 13.366700 13.332200 13.252700 13.161500 13.075900 12.990800 12.906500 12.820100 12.736000 12.649400 12.549200 12.478700 12.361000 12.308100 12.292600 12.308100 12.217800 12.137400 12.193900 12.256300 12.289600 12.298900 12.336300 12.326400 12.343100 12.329600 12.329600 12.329600
13.288500 13.288500 13.288500 13.253400 13.216700 13.175400 13.123400 13.048100 12.961000 12.875300 12.791900 12.708700 12.622800 12.531000 12.428700 12.314400 12.199600 12.091800 12.024800 12.031400 12.038800 11.972900 11.924500 11.981500 12.070400 12.125400 12.156900 12.179800 12.186000 12.191800 12.187600 12.187600 12.187600
13.121200 13.121200 13.121200 13.080700 13.031000 12.976000 12.914800 12.831300 12.750300 12.667600 12.585700 12.509700 12.421100 12.326300 12.207500 12.074400 11.914900 11.816200 11.692400 11.758200 11.817300 11.724600 11.652700 11.781200 11.917900 11.973500 12.015500 12.043200 12.052100 12.050500 12.034000 12.034000 12.034000
12.979000 12.979000 12.979000 12.923800 12.854600 12.770900 12.682400 12.607700 12.531500 12.459200 12.387100 12.316500 12.236000 12.131600 12.007700 11.864300 11.721800 11.611500 11.537200 11.504700 11.490900 11.479100 11.497300 11.600700 11.721200 11.807300 11.866800 11.899300 11.909800 11.901600 11.887900 11.887900 11.887900
12.808000 12.808000 12.808000 12.753700 12.684800 12.596100 12.463500 12.420200 12.329400 12.277200 12.195300 12.133600 12.061200 11.942200 11.820400 11.668100 11.524700 11.417200 11.375400 11.271500 11.198600 11.280200 11.320500 11.452900 11.552200 11.635200 11.707600 11.729400 11.759400 11.721200 11.684400 11.684400 11.684400
12.676600 12.676600 12.676600 12.620400 12.554100 12.478300 12.395500 12.313700 12.226700 12.141200 12.052600 11.952900 11.845100 11.729400 11.602400 11.456400 11.308300 11.165700 11.065700 11.038700 11.076200 11.168100 11.274900 11.341100 11.392600 11.438700 11.476600 11.503800 11.515300 11.515800 11.509700 11.509700 11.509700
12.485500 12.485500 12.485500 12.446800 12.407300 12.372300 12.338500 12.227500 12.128200 12.019900 11.917900 11.780900 11.628400 11.518000 11.390600 11.241300 11.095000 10.918200 10.732300 10.806800 10.927300 11.027500 11.232100 11.199400 11.213800 11.225500 11.235200 11.262000 11.268700 11.284900 11.280000 11.280000 11.280000
12.349500 12.349500 12.349500 12.306700 12.270500 12.237900 12.190900 12.097600 11.984700 11.870500 11.751100 11.612900 11.466100 11.315500 11.166900 11.017500 10.871300 10.732400 10.622300 10.587000 10.619600 10.729600 10.860500 10.934200 10.975800 10.999300 11.014800 11.037600 11.056700 11.078800 11.094900 11.094900 11.094900
12.164700 12.164700 12.164700 12.130600 12.101200 12.074100 12.042900 11.936800 11.811200 11.702200 11.579600 11.435800 11.296100 11.109900 10.945600 10.809200 10.668200 10.589500 10.512800 10.399500 10.281100 10.412200 10.506700 10.656200 10.738400 10.788600 10.796300 10.841100 10.854200 10.879200 10.873700 10.873700 10.873700
12.012900 12.012900 12.012900 11.957200 11.918000 11.882300 11.831200 11.743000 11.628300 11.514900 11.389000 11.227600 11.050700 10.877400 10.725500 10.618400 10.535500 10.459100 10.379200 10.269000 10.189500 10.201900 10.302300 10.436200 10.551400 10.617100 10.652800 10.683600 10.700100 10.706600 10.704400 10.704400 10.704400
11.851400 11.851400 11.851400 11.791300 11.731500 11.673000 11.622300 11.520000 11.412000 11.303200 11.201600 11.013600 10.802400 10.657700 10.488400 10.435000 10.395500 10.313400 10.258300 10.137500 10.072400 9.977900 10.105900 10.240100 10.392400 10.448000 10.502200 10.521800 10.550900 10.513700 10.472900 10.472900 10.472900
11.686200 11.686200 11.686200 11.601100 11.520000 11.434100 11.339700 11.258100 11.149400 11.049800 10.941200 10.803200 10.648800 10.486600 10.343100 10.244500 10.171400 10.092300 10.008200 9.907000 9.808500 9.751800 9.837400 9.988200 10.131800 10.225400 10.282700 10.307800 10.314700 10.300400 10.280600 10.280600 10.280600
11.198400 11.198400 11.198400 11.197200 11.187600 11.152500 11.073600 11.003400 10.880000 10.797000 10.686500 10.591100 10.493000 10.310500 10.163800 10.034500 9.932200 9.847100 9.746300 9.651700 9.551200 9.423200 9.560300 9.726900 9.880400 9.973600 10.045000 10.058900 10.063300 10.047900 10.014800 10.014800 10.014800
11.008900 11.008900 11.008900 10.956600 10.961100 10.946800 10.896900 10.808000 10.683400 10.572500 10.457700 10.351300 10.226200 10.069000 9.913600 9.782900 9.681400 9.598800 9.513100 9.397400 9.288400 9.249500 9.331300 9.470400 9.605600 9.694600 9.748600 9.783300 9.799100 9.800800 9.791600 9.791600 9.791600
10.714200 10.714200 10.714200 10.727800 10.693000 10.769100 10.746000 10.679300 10.483900 10.397300 10.221800 10.124000 9.959600 9.806400 9.630400 9.511600 9.404900 9.344500 9.295100 9.146500 9.020900 9.023300 9.100100 9.219900 9.350000 9.414700 9.450600 9.503900 9.535900 9.543400 9.531600 9.531600 9.531600
10.433200 10.433200 10.433200 10.442900 10.429900 10.587400 10.689600 10.594500 10.442600 10.267800 10.109200 9.912100 9.732800 9.534400 9.364500 9.229300 9.123000 9.061200 8.990200 8.873200 8.772200 8.757200 8.830100 8.948400 9.064600 9.142500 9.192500 9.234100 9.266600 9.286700 9.300900 9.300900 9.300900
10.047400 10.047400 10.047400 10.039000 10.009100 10.198300 10.576500 10.243000 10.225400 9.899500 9.874300 9.518400 9.423200 9.184500 9.054400 8.949200 8.825800 8.785100 8.722100 8.605600 8.490500 8.466100 8.551400 8.691600 8.807500 8.882400 8.935500 8.967300 9.002600 9.021000 9.023800 9.023800 9.023800
9.659200 9.659200 9.659200 9.586000 9.446800 9.442500 9.398000 9.293000 9.161900 9.031900 8.891400 8.742000 8.643200 8.686000 8.738400 8.691700 8.607000 8.530200 8.451200 8.349200 8.253300 8.228400 8.327700 8.457100 8.564500 8.627600 8.663600 8.689600 8.714400 8.760300 8.803600 8.803600 8.803600
9.215300 9.215300 9.215300 9.091500 8.849000 8.661100 8.240600 8.347200 8.103400 8.208400 7.966200 8.049000 7.933600 8.256900 8.508800 8.455500 8.371600 8.288100 8.207000 8.118300 8.027200 7.932700 8.130800 8.241200 8.350300 8.377800 8.400500 8.426600 8.432600 8.474600 8.536300 8.536300 8.536300
8.886700 8.886700 8.886700 8.710000 8.426000 8.242400 8.053700 7.994000 7.961900 7.953000 7.929400 7.931100 7.943600 8.100000 8.227200 8.190500 8.091800 8.029900 7.973900 7.893500 7.798800 7.749500 7.874100 7.997100 8.076000 8.117700 8.149500 8.203500 8.260300 8.282900 8.350100 8.350100 8.350100
8.544100 8.544100 8.544100 8.372200 8.116700 8.025300 7.941900 7.898800 7.978400 7.926900 8.015000 7.942900 8.060700 8.013200 8.063800 7.934600 7.777300 7.773200 7.759000 7.676300 7.612700 7.432800 7.685800 7.771000 7.829100 7.880000 7.897600 8.006600 8.106400 8.093500 8.109600 8.109600 8.109600
8.276500 8.276500 8.276500 8.128300 7.876500 7.794200 7.738700 7.729600 7.749700 7.754100 7.762200 7.741400 7.744800 7.747800 7.739300 7.664700 7.574200 7.528600 7.486900 7.418700 7.346500 7.326400 7.435100 7.548700 7.632000 7.689300 7.741800 7.823200 7.894700 7.900900 7.934300 7.934300 7.934300
7.734500 7.734500 7.734500 7.645600 7.501700 7.504400 7.515100 7.502900 7.509000 7.504800 7.475500 7.447300 7.371900 7.428800 7.429800 7.391700 7.341400 7.286700 7.234700 7.160500 7.094500 7.130600 7.225600 7.340400 7.457200 7.513700 7.570000 7.641300 7.704100 7.677100 7.660200 7.660200 7.660200
7.569200 7.569200 7.569200 7.443300 7.279100 7.280700 7.285100 7.262400 7.256500 7.250300 7.234000 7.195200 7.155000 7.157400 7.152800 7.119800 7.074300 7.029800 6.978100 6.907100 6.861900 6.902400 6.997800 7.119300 7.234700 7.319000 7.385400 7.444100 7.482000 7.458300 7.459200 7.459200 7.459200
7.349800 7.349800 7.349800 7.242000 7.076600 7.066900 7.051800 7.023900 6.997000 7.009600 7.015300 6.972000 6.929900 6.920900 6.905500 6.857000 6.801900 6.773400 6.747000 6.671500 6.600700 6.689900 6.771400 6.914100 7.024400 7.118900 7.185900 7.233700 7.262100 7.211500 7.184000 7.184000 7.184000
6.850300 6.850300 6.850300 6.845500 6.760100 6.805300 6.822500 6.795600 6.778100 6.772700 6.766800 6.749500 6.725000 6.692200 6.651000 6.593800 6.538100 6.509200 6.486600 6.458100 6.461400 6.527600 6.629800 6.734100 6.832700 6.911400 6.970900 6.998400 7.005000 6.953000 6.938200 6.938200 6.938200
6.579200 6.579200 6.579200 6.588400 6.518700 6.578500 6.600700 6.575300 6.555000 6.548600 6.527600 6.529000 6.521500 6.469300 6.411800 6.350800 6.271600 6.264800 6.247200 6.249500 6.289800 6.358400 6.481900 6.540800 6.625100 6.669400 6.734800 6.717100 6.728800 6.649700 6.624400 6.624400 6.624400
6.424500 6.424500 6.424500 6.415100 6.319000 6.352900 6.365700 6.356900 6.353300 6.338700 6.322000 6.301900 6.275300 6.230900 6.181700 6.137100 6.096400 6.052800 6.017300 6.015200 6.044900 6.117700 6.206900 6.275200 6.325500 6.352100 6.361500 6.352200 6.337900 6.311300 6.334900 6.334900 6.334900
6.161800 6.161800 6.161800 6.167600 6.089200 6.132200 6.128300 6.146300 6.155700 6.123000 6.108200 6.063700 6.032000 5.988100 5.946600 5.928000 5.934500 5.865800 5.791200 5.800000 5.782000 5.865700 5.934500 5.992100 6.019800 6.021800 5.986300 5.979300 5.940500 5.954300 5.981800 5.981800 5.981800
6.008600 6.008600 6.008600 6.002500 5.902700 5.940400 5.954500 5.938500 5.913800 5.870400 5.826000 5.797900 5.771200 5.734800 5.699900 5.682300 5.677300 5.685300 5.683900 5.642800 5.613500 5.640200 5.686600 5.724500 5.740500 5.731200 5.701100 5.669900 5.648800 5.653500 5.713700 5.713700 5.713700
5.751600 5.751600 5.751600 5.760000 5.680200 5.745500 5.779000 5.732700 5.684500 5.626300 5.538200 5.546500 5.526000 5.498600 5.452900 5.449900 5.413200 5.501600 5.599200 5.486500 5.419300 5.439900 5.462000 5.495400 5.495500 5.491400 5.452900 5.422900 5.367500 5.392000 5.419600 5.419600 5.419600
5.615200 5.615200 5.615200 5.605300 5.496200 5.543200 5.557800 5.516000 5.464800 5.424200 5.384700 5.342800 5.307700 5.291400 5.282500 5.271300 5.265400 5.277500 5.281900 5.254000 5.232500 5.250600 5.280600 5.298400 5.302200 5.294400 5.274700 5.239500 5.208500 5.184700 5.216700 5.216700 5.216700
5.310900 5.310900 5.310900 5.333800 5.267000 5.331400 5.346800 5.306500 5.243200 5.235100 5.240100 5.149100 5.084700 5.093700 5.118200 5.098500 5.103000 5.046800 4.978000 5.010700 5.017600 5.065000 5.109100 5.111200 5.112100 5.099900 5.106000 5.053900 5.045100 4.967700 4.939500 4.939500 4.939500
5.167100 5.167100 5.167100 5.170400 5.075800 5.130100 5.146000 5.112300 5.060700 5.018600 4.974300 4.918000 4.876100 4.869800 4.876900 4.871900 4.856000 4.819200 4.790400 4.798700 4.827600 4.865500 4.896500 4.891500 4.874100 4.853200 4.831100 4.799400 4.771600 4.728700 4.734000 4.734000 4.734000
4.839100 4.839100 4.839100 4.884900 4.856600 4.933700 4.956700 4.927300 4.868300 4.797000 4.709800 4.673700 4.636700 4.631600 4.630500 4.627200 4.609200 4.586500 4.578700 4.583700 4.621400 4.644900 4.679300 4.644800 4.612300 4.579500 4.545200 4.521600 4.484300 4.467700 4.453900 4.453900 4.453900
4.454200 4.454200 4.454200 4.692800 4.646700 4.735500 4.781800 4.740000 4.663000 4.575100 4.493100 4.429700 4.391100 4.382100 4.383300 4.372700 4.351800 4.330500 4.316900 4.326100 4.348500 4.370800 4.379900 4.358500 4.323900 4.293600 4.270100 4.261600 4.256100 4.234700 4.241200 4.241200 4.241200
4.171400 4.171400 4.171400 4.266100 4.371900 4.494800 4.606200 4.511900 4.429400 4.322700 4.252600 4.169000 4.121500 4.127000 4.139800 4.123800 4.097100 4.080300 4.042300 4.064600 4.066700 4.087900 4.088000 4.070900 4.030100 4.017300 3.993500 4.014300 4.036200 4.008100 3.986900 3.986900 3.986900
3.915900 3.915900 3.915900 3.993200 4.079400 4.181000 4.240300 4.186500 4.093500 3.999900 3.921800 3.870800 3.849300 3.856800 3.872100 3.872500 3.864600 3.853200 3.840200 3.825700 3.815600 3.815000 3.813100 3.800200 3.781800 3.764700 3.757200 3.771500 3.789700 3.769400 3.770400 3.770400 3.770400
3.565600 3.565600 3.565600 3.634200 3.718200 3.808200 3.880700 3.806800 3.725300 3.653000 3.569800 3.570000 3.560700 3.591500 3.612500 3.624500 3.630800 3.630100 3.640000 3.594900 3.560700 3.555000 3.550000 3.544700 3.539400 3.524900 3.511900 3.524700 3.551600 3.517200 3.483600 3.483600 3.483600
3.288400 3.288400 3.288400 3.316600 3.357700 3.396600 3.414700 3.395400 3.359300 3.325700 3.300800 3.300200 3.312400 3.334000 3.354600 3.364900 3.368300 3.371700 3.364500 3.338600 3.309900 3.294100 3.286500 3.284000 3.283500 3.282000 3.275500 3.260500 3.250100 3.245200 3.250500 3.250500 3.250500
2.934800 2.934800 2.934800 2.949500 2.978700 2.997800 2.975500 3.016300 3.006000 3.027600 3.036400 3.048100 3.066900 3.082400 3.103500 3.109700 3.103500 3.116300 3.100500 3.085900 3.054700 3.044300 3.027300 3.034600 3.030300 3.042900 3.048600 2.997400 2.948100 2.986300 2.988900 2.988900 2.988900
2.662000 2.662000 2.662000 2.643100 2.637200 2.663200 2.696400 2.724400 2.743900 2.760200 2.776400 2.787600 2.800800 2.810900 2.828700 2.856300 2.878000 2.880000 2.865000 2.845400 2.824200 2.806800 2.797500 2.798000 2.801100 2.798800 2.783100 2.748300 2.729300 2.754600 2.795500 2.795500 2.795500
2.371400 2.371400 2.371400 2.341700 2.300000 2.384100 2.460000 2.476800 2.503100 2.514000 2.521300 2.598800 2.533500 2.536900 2.545700 2.610500 2.667600 2.661000 2.637200 2.618700 2.597500 2.581000 2.567100 2.573000 2.576200 2.558900 2.538100 2.506800 2.500000 2.540100 2.582100 2.582100 2.582100
2.180700 2.180700 2.180700 2.141700 2.121900 2.148500 2.189100 2.221700 2.248500 2.258300 2.263200 2.263900 2.262500 2.258500 2.282900 2.359300 2.430700 2.436000 2.410300 2.386800 2.367800 2.350000 2.340800 2.343100 2.340700 2.313700 2.281200 2.262700 2.281300 2.340200 2.413100 2.413100 2.413100
1.959100 1.959100 1.959100 1.946100 1.940000 1.933500 1.944500 1.964400 2.000100 2.001400 2.006200 1.998100 2.000100 1.978000 1.987900 2.109100 2.231800 2.214100 2.173900 2.154400 2.140300 2.118500 2.106800 2.113300 2.122100 2.067700 2.027600 2.013800 2.051900 2.149200 2.241300 2.241300 2.241300
1.822900 1.822900 1.822900 1.780500 1.745900 1.705300 1.679800 1.699300 1.726700 1.736300 1.733600 1.725800 1.711200 1.695200 1.723900 1.851600 1.972200 1.981500 1.942600 1.917500 1.899400 1.881600 1.870500 1.875400 1.866100 1.814600 1.761400 1.763600 1.832100 1.982000 2.136600 2.136600 2.136600
1.704800 1.704800 1.704800 1.662900 1.580000 1.519000 1.429000 1.481100 1.497200 1.514200 1.491100 1.497200 1.466700 1.462600 1.430200 1.632100 1.795900 1.775700 1.710600 1.712600 1.683100 1.680400 1.646600 1.675400 1.667900 1.610300 1.517000 1.567900 1.603900 1.851400 2.080000 2.080000 2.080000
1.586700 1.586700 1.586700 1.545300 1.414100 1.332700 1.178200 1.262900 1.267700 1.292100 1.248600 1.268600 1.222200 1.230000 1.136500 1.412600 1.619600 1.569900 1.478600 1.507700 1.466800 1.479200 1.422700 1.475400 1.469700 1.406000 1.272600 1.372200 1.375700 1.720800 2.023400 2.023400 2.023400