ncols         152
nrows         64
xllcorner     2486737.75
yllcorner     4521530.5
cellsize      5.000000
NODATA_value  -9999.0
-9999.0 -9999.0 -9999.0 -9999.0 -9999.0 -9999.0 -9999.0 -9999.0 -9999.0 -9999.0 -9999.0 -9999.0 -9999.0 -9999.0 -9999.0 -9999.0 -9999.0 -9999.0 -9999.0 -9999.0 -9999.0 -9999.0 -9999.0 -9999.0 -9999.0 -9999.0 -9999.0 -9999.0 -9999.0 818.675000 818.029000 817.245000 816.306000 815.259000 813.639000 812.066000 810.581000 809.246000 807.909000 806.882000 805.816000 804.746000 803.418000 802.056000 800.771000 799.548000 798.387000 797.193000 795.868000 794.491000 793.217000 792.033000 790.748000 789.343000 787.643000 785.844000 784.348000 783.101000 781.850000 780.586000 779.354000 778.148000 776.939000 775.723000 774.509000 773.341000 772.161000 770.995000 769.847000 768.899000 767.937000 766.914000 765.888000 764.878000 763.972000 763.067000 761.378000 760.532000 759.749000 -9999.0 -9999.0 -9999.0 -9999.0 -9999.0 -9999.0 -9999.0 -9999.0 -9999.0 -9999.0 -9999.0 -9999.0 -9999.0 -9999.0 -9999.0 -9999.0 -9999.0 -9999.0 -9999.0 -9999.0 -9999.0 -9999.0 -9999.0 -9999.0 -9999.0 -9999.0 -9999.0 -9999.0 -9999.0 -9999.0 -9999.0 -9999.0 -9999.0 -9999.0 -9999.0 -9999.0 -9999.0 -9999.0 -9999.0 -9999.0 -9999.0 -9999.0 -9999.0 -9999.0 -9999.0 -9999.0 -9999.0 -9999.0 -9999.0 -9999.0 -9999.0 -9999.0 -9999.0 -9999.0 -9999.0 -9999.0 -9999.0 -9999.0 -9999.0 -9999.0 -9999.0 -9999.0 -9999.0 -9999.0 -9999.0 -9999.0 -9999.0 -9999.0 -9999.0 -9999.0 -9999.0 -9999.0 -9999.0
-9999.0 -9999.0 -9999.0 -9999.0 -9999.0 -9999.0 -9999.0 -9999.0 -9999.0 -9999.0 -9999.0 -9999.0 -9999.0 -9999.0 -9999.0 -9999.0 -9999.0 -9999.0 -9999.0 -9999.0 -9999.0 -9999.0 -9999.0 -9999.0 -9999.0 -9999.0 -9999.0 -9999.0 -9999.0 817.159000 816.611000 815.900000 815.091000 813.460000 811.874000 810.301000 808.914000 807.572000 806.418000 805.321000 804.175000 802.896000 801.577000 800.293000 799.172000 798.098000 796.958000 795.763000 794.497000 793.210000 791.987000 790.769000 789.598000 788.086000 786.490000 784.808000 783.585000 782.351000 781.114000 779.867000 778.668000 777.479000 776.284000 775.083000 773.850000 772.701000 771.524000 770.387000 769.380000 768.450000 767.511000 766.556000 765.533000 764.565000 763.659000 762.754000 761.012000 760.184000 759.447000 758.751000 758.123000 -9999.0 -9999.0 -9999.0 -9999.0 -9999.0 -9999.0 -9999.0 -9999.0 -9999.0 -9999.0 -9999.0 -9999.0 -9999.0 -9999.0 -9999.0 -9999.0 -9999.0 -9999.0 -9999.0 -9999.0 -9999.0 -9999.0 -9999.0 -9999.0 -9999.0 -9999.0 -9999.0 -9999.0 -9999.0 -9999.0 -9999.0 -9999.0 -9999.0 -9999.0 -9999.0 -9999.0 -9999.0 -9999.0 -9999.0 -9999.0 -9999.0 -9999.0 -9999.0 -9999.0 -9999.0 -9999.0 -9999.0 -9999.0 -9999.0 -9999.0 -9999.0 -9999.0 -9999.0 -9999.0 -9999.0 -9999.0 -9999.0 -9999.0 -9999.0 -9999.0 -9999.0 -9999.0 -9999.0 -9999.0 -9999.0 -9999.0 -9999.0 -9999.0 -9999.0 -9999.0 -9999.0
-9999.0 -9999.0 -9999.0 -9999.0 -9999.0 -9999.0 -9999.0 -9999.0 -9999.0 -9999.0 -9999.0 -9999.0 -9999.0 -9999.0 -9999.0 -9999.0 -9999.0 -9999.0 -9999.0 -9999.0 -9999.0 -9999.0 -9999.0 -9999.0 -9999.0 -9999.0 -9999.0 -9999.0 -9999.0 -9999.0 815.062000 814.237000 812.929000 811.409000 809.835000 808.362000 806.911000 805.774000 804.632000 803.470000 802.277000 801.012000 799.780000 798.712000 797.683000 796.625000 795.523000 794.329000 793.063000 791.825000 790.585000 789.408000 788.130000 786.863000 785.263000 784.003000 782.789000 781.566000 780.334000 779.133000 777.951000 776.780000 775.591000 774.395000 773.191000 771.966000 770.833000 769.758000 768.847000 767.930000 767.013000 766.096000 765.174000 764.252000 763.346000 762.441000 760.635000 759.832000 759.102000 758.450000 757.744000 757.127000 -9999.0 -9999.0 -9999.0 -9999.0 -9999.0 -9999.0 -9999.0 -9999.0 -9999.0 -9999.0 -9999.0 -9999.0 -9999.0 -9999.0 -9999.0 -9999.0 -9999.0 -9999.0 -9999.0 -9999.0 -9999.0 -9999.0 -9999.0 -9999.0 -9999.0 -9999.0 -9999.0 -9999.0 -9999.0 -9999.0 -9999.0 -9999.0 -9999.0 -9999.0 -9999.0 -9999.0 -9999.0 -9999.0 -9999.0 -9999.0 -9999.0 -9999.0 -9999.0 -9999.0 -9999.0 -9999.0 -9999.0 -9999.0 -9999.0 -9999.0 -9999.0 -9999.0 -9999.0 -9999.0 -9999.0 -9999.0 -9999.0 -9999.0 -9999.0 -9999.0 -9999.0 -9999.0 -9999.0 -9999.0 -9999.0 -9999.0 -9999.0 -9999.0 -9999.0 -9999.0
-9999.0 -9999.0 -9999.0 -9999.0 -9999.0 -9999.0 -9999.0 -9999.0 -9999.0 -9999.0 -9999.0 -9999.0 -9999.0 -9999.0 -9999.0 -9999.0 -9999.0 -9999.0 -9999.0 -9999.0 -9999.0 -9999.0 -9999.0 -9999.0 -9999.0 -9999.0 -9999.0 -9999.0 -9999.0 -9999.0 812.666000 811.834000 810.633000 809.016000 807.604000 806.240000 804.903000 803.807000 802.713000 801.568000 800.369000 799.222000 798.106000 797.180000 796.134000 795.126000 793.997000 792.792000 791.569000 790.329000 789.109000 787.978000 786.794000 785.494000 784.289000 783.112000 781.925000 780.719000 779.507000 778.355000 777.195000 776.007000 774.836000 773.632000 772.404000 771.245000 770.081000 768.993000 768.031000 767.119000 766.208000 765.297000 764.490000 763.716000 762.889000 762.005000 760.237000 759.478000 758.768000 758.037000 757.386000 756.747000 756.096000 -9999.0 -9999.0 -9999.0 -9999.0 -9999.0 -9999.0 -9999.0 -9999.0 -9999.0 -9999.0 -9999.0 -9999.0 -9999.0 -9999.0 -9999.0 -9999.0 -9999.0 -9999.0 -9999.0 -9999.0 -9999.0 -9999.0 -9999.0 -9999.0 -9999.0 -9999.0 -9999.0 -9999.0 -9999.0 -9999.0 -9999.0 -9999.0 -9999.0 -9999.0 -9999.0 -9999.0 -9999.0 -9999.0 -9999.0 -9999.0 -9999.0 -9999.0 -9999.0 -9999.0 -9999.0 -9999.0 -9999.0 -9999.0 -9999.0 -9999.0 -9999.0 -9999.0 -9999.0 -9999.0 -9999.0 -9999.0 -9999.0 -9999.0 -9999.0 -9999.0 -9999.0 -9999.0 -9999.0 -9999.0 -9999.0 -9999.0 -9999.0 -9999.0 -9999.0
-9999.0 -9999.0 -9999.0 -9999.0 -9999.0 -9999.0 -9999.0 -9999.0 -9999.0 -9999.0 -9999.0 -9999.0 -9999.0 -9999.0 -9999.0 -9999.0 -9999.0 -9999.0 -9999.0 -9999.0 -9999.0 -9999.0 -9999.0 -9999.0 -9999.0 -9999.0 -9999.0 -9999.0 -9999.0 -9999.0 810.181000 809.275000 807.818000 806.379000 805.070000 803.948000 802.898000 801.855000 800.766000 799.662000 798.453000 797.440000 796.426000 795.506000 794.548000 793.502000 792.389000 791.222000 790.021000 788.777000 787.604000 786.454000 785.366000 784.318000 783.260000 782.139000 780.990000 779.835000 778.623000 777.406000 776.300000 775.158000 773.987000 772.769000 771.595000 770.413000 769.322000 768.267000 767.214000 766.303000 765.392000 764.569000 763.812000 763.056000 762.257000 761.441000 759.773000 759.050000 758.327000 757.668000 756.973000 756.292000 755.681000 755.064000 -9999.0 -9999.0 -9999.0 -9999.0 -9999.0 -9999.0 -9999.0 -9999.0 -9999.0 -9999.0 -9999.0 -9999.0 -9999.0 -9999.0 -9999.0 -9999.0 -9999.0 -9999.0 -9999.0 -9999.0 -9999.0 -9999.0 -9999.0 -9999.0 -9999.0 -9999.0 -9999.0 -9999.0 -9999.0 -9999.0 -9999.0 -9999.0 -9999.0 -9999.0 -9999.0 -9999.0 -9999.0 -9999.0 -9999.0 -9999.0 -9999.0 -9999.0 -9999.0 -9999.0 -9999.0 -9999.0 -9999.0 -9999.0 -9999.0 -9999.0 -9999.0 -9999.0 -9999.0 -9999.0 -9999.0 -9999.0 -9999.0 -9999.0 -9999.0 -9999.0 -9999.0 -9999.0 -9999.0 -9999.0 -9999.0 -9999.0 -9999.0 -9999.0
-9999.0 -9999.0 -9999.0 -9999.0 -9999.0 -9999.0 -9999.0 -9999.0 -9999.0 -9999.0 -9999.0 -9999.0 -9999.0 -9999.0 -9999.0 -9999.0 -9999.0 -9999.0 -9999.0 -9999.0 -9999.0 -9999.0 -9999.0 -9999.0 -9999.0 -9999.0 -9999.0 -9999.0 -9999.0 -9999.0 806.996000 806.051000 804.878000 803.847000 802.693000 801.846000 800.809000 799.806000 798.631000 797.425000 796.505000 795.486000 794.637000 793.766000 792.852000 791.837000 790.767000 789.571000 788.286000 787.077000 785.969000 784.910000 784.031000 783.139000 782.140000 781.094000 779.990000 778.802000 777.628000 776.505000 775.335000 774.224000 773.081000 771.910000 770.719000 769.599000 768.557000 767.512000 766.456000 765.486000 764.647000 763.891000 763.135000 762.378000 761.615000 760.799000 759.296000 758.620000 757.905000 757.182000 756.503000 755.857000 755.198000 754.797000 754.520000 754.185000 -9999.0 -9999.0 -9999.0 -9999.0 -9999.0 -9999.0 -9999.0 -9999.0 -9999.0 -9999.0 -9999.0 -9999.0 -9999.0 -9999.0 -9999.0 -9999.0 -9999.0 -9999.0 -9999.0 -9999.0 -9999.0 -9999.0 -9999.0 -9999.0 -9999.0 -9999.0 -9999.0 -9999.0 -9999.0 -9999.0 -9999.0 -9999.0 -9999.0 -9999.0 -9999.0 -9999.0 -9999.0 -9999.0 -9999.0 -9999.0 -9999.0 -9999.0 -9999.0 -9999.0 -9999.0 -9999.0 -9999.0 -9999.0 -9999.0 -9999.0 -9999.0 -9999.0 -9999.0 -9999.0 -9999.0 -9999.0 -9999.0 -9999.0 -9999.0 -9999.0 -9999.0 -9999.0 -9999.0 -9999.0 -9999.0 -9999.0
-9999.0 -9999.0 -9999.0 -9999.0 -9999.0 -9999.0 -9999.0 -9999.0 -9999.0 -9999.0 -9999.0 -9999.0 -9999.0 -9999.0 -9999.0 -9999.0 -9999.0 -9999.0 -9999.0 -9999.0 -9999.0 -9999.0 -9999.0 -9999.0 -9999.0 -9999.0 -9999.0 -9999.0 -9999.0 -9999.0 803.770000 803.027000 802.148000 801.372000 800.385000 799.467000 798.427000 797.257000 796.198000 795.163000 794.383000 793.615000 792.837000 792.013000 791.132000 790.155000 788.934000 787.646000 786.426000 785.285000 784.382000 783.575000 782.766000 781.882000 780.978000 779.951000 778.839000 777.727000 776.582000 775.421000 774.343000 773.257000 772.141000 770.996000 769.831000 768.767000 767.731000 766.696000 765.660000 764.714000 763.967000 763.213000 762.457000 761.700000 760.944000 760.157000 758.734000 758.066000 757.394000 756.715000 756.036000 755.339000 754.850000 754.560000 754.301000 754.032000 753.607000 753.181000 -9999.0 -9999.0 -9999.0 -9999.0 -9999.0 -9999.0 -9999.0 -9999.0 -9999.0 -9999.0 -9999.0 -9999.0 -9999.0 -9999.0 -9999.0 -9999.0 -9999.0 -9999.0 -9999.0 -9999.0 -9999.0 -9999.0 -9999.0 -9999.0 -9999.0 -9999.0 -9999.0 -9999.0 -9999.0 -9999.0 -9999.0 -9999.0 -9999.0 -9999.0 -9999.0 -9999.0 -9999.0 -9999.0 -9999.0 -9999.0 -9999.0 -9999.0 -9999.0 -9999.0 -9999.0 -9999.0 -9999.0 -9999.0 -9999.0 -9999.0 -9999.0 -9999.0 -9999.0 -9999.0 -9999.0 -9999.0 -9999.0 -9999.0 -9999.0 -9999.0 -9999.0 -9999.0 -9999.0 -9999.0
-9999.0 -9999.0 -9999.0 -9999.0 -9999.0 -9999.0 -9999.0 -9999.0 -9999.0 -9999.0 -9999.0 -9999.0 -9999.0 -9999.0 -9999.0 -9999.0 -9999.0 -9999.0 -9999.0 -9999.0 -9999.0 -9999.0 -9999.0 -9999.0 -9999.0 -9999.0 -9999.0 -9999.0 -9999.0 -9999.0 -9999.0 799.934000 799.330000 798.622000 797.795000 796.809000 795.740000 794.734000 793.940000 793.180000 792.443000 791.749000 790.988000 790.236000 789.237000 788.105000 786.885000 785.633000 784.592000 783.775000 782.948000 782.188000 781.416000 780.622000 779.693000 778.717000 777.625000 776.522000 775.413000 774.330000 773.329000 772.277000 771.190000 770.065000 768.936000 767.839000 766.803000 765.768000 764.757000 763.817000 763.166000 762.452000 761.705000 760.959000 760.213000 759.506000 758.182000 757.482000 756.835000 756.164000 755.488000 754.899000 754.596000 754.322000 754.083000 753.855000 753.454000 753.029000 752.603000 752.178000 -9999.0 -9999.0 -9999.0 -9999.0 -9999.0 -9999.0 -9999.0 -9999.0 -9999.0 -9999.0 -9999.0 -9999.0 -9999.0 -9999.0 -9999.0 -9999.0 -9999.0 -9999.0 -9999.0 -9999.0 -9999.0 -9999.0 -9999.0 -9999.0 -9999.0 -9999.0 -9999.0 -9999.0 -9999.0 -9999.0 -9999.0 -9999.0 -9999.0 -9999.0 -9999.0 -9999.0 -9999.0 -9999.0 -9999.0 -9999.0 -9999.0 -9999.0 -9999.0 -9999.0 -9999.0 -9999.0 -9999.0 -9999.0 -9999.0 -9999.0 -9999.0 -9999.0 -9999.0 -9999.0 -9999.0 -9999.0 -9999.0 -9999.0 -9999.0 -9999.0 -9999.0 -9999.0
-9999.0 -9999.0 -9999.0 -9999.0 -9999.0 -9999.0 -9999.0 -9999.0 -9999.0 -9999.0 -9999.0 -9999.0 -9999.0 -9999.0 -9999.0 -9999.0 -9999.0 -9999.0 -9999.0 -9999.0 -9999.0 -9999.0 -9999.0 -9999.0 -9999.0 -9999.0 -9999.0 -9999.0 -9999.0 -9999.0 -9999.0 797.343000 796.746000 795.994000 795.155000 794.264000 793.440000 792.661000 791.914000 791.195000 790.499000 789.775000 788.975000 788.098000 787.086000 785.952000 784.802000 783.827000 783.027000 782.231000 781.474000 780.757000 780.051000 779.169000 778.310000 777.324000 776.363000 775.299000 774.177000 773.227000 772.190000 771.247000 770.206000 769.139000 768.036000 766.911000 765.875000 764.854000 763.914000 762.974000 762.260000 761.617000 760.936000 760.189000 759.462000 758.741000 757.617000 756.930000 756.251000 755.604000 754.963000 754.610000 754.342000 754.026000 753.784000 753.571000 753.301000 752.876000 752.450000 752.025000 751.600000 751.174000 750.749000 750.324000 750.000000 750.000000 -9999.0 -9999.0 -9999.0 -9999.0 -9999.0 -9999.0 -9999.0 -9999.0 -9999.0 -9999.0 -9999.0 -9999.0 -9999.0 -9999.0 -9999.0 -9999.0 -9999.0 -9999.0 -9999.0 -9999.0 -9999.0 -9999.0 -9999.0 -9999.0 -9999.0 -9999.0 -9999.0 -9999.0 -9999.0 -9999.0 -9999.0 -9999.0 -9999.0 -9999.0 -9999.0 -9999.0 -9999.0 -9999.0 -9999.0 -9999.0 -9999.0 -9999.0 -9999.0 -9999.0 -9999.0 -9999.0 -9999.0 -9999.0 -9999.0 -9999.0 -9999.0 -9999.0 -9999.0 -9999.0 -9999.0 -9999.0
-9999.0 -9999.0 -9999.0 -9999.0 -9999.0 -9999.0 -9999.0 -9999.0 -9999.0 -9999.0 -9999.0 -9999.0 -9999.0 -9999.0 -9999.0 -9999.0 -9999.0 -9999.0 -9999.0 -9999.0 -9999.0 -9999.0 -9999.0 -9999.0 -9999.0 -9999.0 -9999.0 -9999.0 -9999.0 -9999.0 -9999.0 794.672000 794.091000 793.352000 792.712000 791.965000 791.227000 790.513000 789.785000 788.996000 788.211000 787.517000 786.725000 785.918000 784.892000 783.779000 782.885000 782.112000 781.325000 780.591000 779.899000 779.047000 778.308000 777.615000 776.761000 775.932000 774.990000 773.813000 772.881000 771.847000 771.037000 770.079000 769.000000 767.907000 767.016000 766.006000 764.952000 764.012000 763.072000 762.132000 761.354000 760.711000 760.067000 759.440000 758.719000 757.997000 756.909000 756.319000 755.678000 755.022000 754.649000 754.322000 753.974000 753.772000 753.546000 753.353000 753.148000 752.723000 752.298000 751.872000 751.447000 751.022000 750.596000 750.171000 750.000000 750.000000 750.000000 750.000000 -9999.0 -9999.0 -9999.0 -9999.0 -9999.0 -9999.0 -9999.0 -9999.0 -9999.0 -9999.0 -9999.0 -9999.0 -9999.0 -9999.0 -9999.0 -9999.0 -9999.0 -9999.0 -9999.0 -9999.0 -9999.0 -9999.0 -9999.0 -9999.0 -9999.0 -9999.0 -9999.0 -9999.0 -9999.0 -9999.0 -9999.0 -9999.0 -9999.0 -9999.0 -9999.0 -9999.0 -9999.0 -9999.0 -9999.0 -9999.0 -9999.0 -9999.0 -9999.0 -9999.0 -9999.0 -9999.0 -9999.0 -9999.0 -9999.0 -9999.0 -9999.0 -9999.0 -9999.0 -9999.0
-9999.0 -9999.0 -9999.0 -9999.0 -9999.0 -9999.0 -9999.0 -9999.0 -9999.0 -9999.0 -9999.0 -9999.0 -9999.0 -9999.0 -9999.0 -9999.0 -9999.0 -9999.0 -9999.0 -9999.0 -9999.0 -9999.0 -9999.0 -9999.0 -9999.0 -9999.0 -9999.0 -9999.0 -9999.0 -9999.0 -9999.0 791.571000 791.155000 790.665000 790.134000 789.421000 788.642000 787.796000 787.085000 786.416000 785.808000 785.130000 784.337000 783.331000 782.288000 781.593000 780.784000 780.124000 779.292000 778.431000 777.629000 777.047000 776.446000 775.806000 775.172000 774.190000 773.207000 772.125000 771.201000 770.431000 769.500000 768.625000 767.544000 766.718000 765.748000 764.843000 763.947000 763.152000 762.229000 761.289000 760.448000 759.807000 759.172000 758.546000 757.975000 757.254000 756.136000 755.604000 755.020000 754.664000 754.330000 753.959000 753.674000 753.518000 753.309000 753.126000 752.972000 752.570000 752.145000 751.720000 751.294000 750.869000 750.444000 750.018000 750.000000 750.000000 750.000000 750.000000 750.000000 750.000000 -9999.0 -9999.0 -9999.0 -9999.0 -9999.0 -9999.0 -9999.0 -9999.0 -9999.0 -9999.0 -9999.0 -9999.0 -9999.0 -9999.0 -9999.0 -9999.0 -9999.0 -9999.0 -9999.0 -9999.0 -9999.0 -9999.0 -9999.0 -9999.0 -9999.0 -9999.0 -9999.0 -9999.0 -9999.0 -9999.0 -9999.0 -9999.0 -9999.0 -9999.0 -9999.0 -9999.0 -9999.0 -9999.0 -9999.0 -9999.0 -9999.0 -9999.0 -9999.0 -9999.0 -9999.0 -9999.0 -9999.0 -9999.0 -9999.0 -9999.0 -9999.0 -9999.0
-9999.0 -9999.0 -9999.0 -9999.0 -9999.0 -9999.0 -9999.0 -9999.0 -9999.0 -9999.0 -9999.0 -9999.0 -9999.0 -9999.0 -9999.0 -9999.0 -9999.0 -9999.0 -9999.0 -9999.0 -9999.0 -9999.0 -9999.0 -9999.0 -9999.0 -9999.0 -9999.0 -9999.0 -9999.0 -9999.0 -9999.0 788.135000 787.776000 787.349000 786.781000 786.216000 785.582000 784.951000 784.267000 783.556000 782.822000 782.075000 781.308000 780.515000 779.789000 778.992000 778.231000 777.463000 776.682000 775.970000 775.360000 774.838000 774.262000 773.653000 772.862000 772.015000 771.117000 770.231000 769.385000 768.452000 767.688000 766.825000 766.133000 765.274000 764.427000 763.447000 762.494000 761.699000 760.903000 760.108000 759.533000 758.913000 758.278000 757.643000 757.066000 756.506000 755.343000 754.892000 754.554000 754.197000 753.935000 753.645000 753.385000 753.213000 752.961000 752.774000 752.644000 752.418000 751.992000 751.567000 751.141000 750.716000 750.291000 750.000000 750.000000 750.000000 750.000000 750.000000 750.000000 750.000000 750.000000 -9999.0 -9999.0 -9999.0 -9999.0 -9999.0 -9999.0 -9999.0 -9999.0 -9999.0 -9999.0 -9999.0 -9999.0 -9999.0 -9999.0 -9999.0 -9999.0 -9999.0 -9999.0 -9999.0 -9999.0 -9999.0 -9999.0 -9999.0 -9999.0 -9999.0 -9999.0 -9999.0 -9999.0 -9999.0 -9999.0 -9999.0 -9999.0 -9999.0 -9999.0 -9999.0 -9999.0 -9999.0 -9999.0 -9999.0 -9999.0 -9999.0 -9999.0 -9999.0 -9999.0 -9999.0 -9999.0 -9999.0 -9999.0 -9999.0 -9999.0 -9999.0
-9999.0 -9999.0 -9999.0 -9999.0 -9999.0 -9999.0 -9999.0 -9999.0 -9999.0 -9999.0 -9999.0 -9999.0 -9999.0 -9999.0 -9999.0 -9999.0 -9999.0 -9999.0 -9999.0 -9999.0 -9999.0 -9999.0 -9999.0 -9999.0 -9999.0 -9999.0 -9999.0 -9999.0 -9999.0 -9999.0 -9999.0 784.514000 784.186000 783.806000 783.375000 782.873000 782.329000 781.701000 781.040000 780.355000 779.655000 778.932000 778.213000 777.489000 776.754000 776.010000 775.311000 774.598000 773.911000 773.324000 772.677000 772.237000 771.687000 771.142000 770.448000 769.685000 768.862000 768.022000 767.154000 766.361000 765.648000 765.005000 764.387000 763.653000 762.804000 761.983000 761.072000 760.245000 759.598000 759.016000 758.529000 757.992000 757.384000 756.749000 756.155000 755.590000 754.660000 754.351000 754.080000 753.772000 753.586000 753.331000 753.060000 752.793000 752.694000 752.533000 752.404000 752.265000 751.839000 751.414000 750.989000 750.563000 750.138000 750.000000 750.000000 750.000000 750.000000 750.000000 750.000000 750.000000 750.000000 750.313000 -9999.0 -9999.0 -9999.0 -9999.0 -9999.0 -9999.0 -9999.0 -9999.0 -9999.0 -9999.0 -9999.0 -9999.0 -9999.0 -9999.0 -9999.0 -9999.0 -9999.0 -9999.0 -9999.0 -9999.0 -9999.0 -9999.0 -9999.0 -9999.0 -9999.0 -9999.0 -9999.0 -9999.0 -9999.0 -9999.0 -9999.0 -9999.0 -9999.0 -9999.0 -9999.0 -9999.0 -9999.0 -9999.0 -9999.0 -9999.0 -9999.0 -9999.0 -9999.0 -9999.0 -9999.0 -9999.0 -9999.0 -9999.0 -9999.0 -9999.0
-9999.0 -9999.0 -9999.0 -9999.0 -9999.0 -9999.0 -9999.0 -9999.0 -9999.0 -9999.0 -9999.0 -9999.0 -9999.0 -9999.0 -9999.0 -9999.0 -9999.0 -9999.0 -9999.0 -9999.0 -9999.0 -9999.0 -9999.0 -9999.0 -9999.0 -9999.0 -9999.0 -9999.0 -9999.0 -9999.0 -9999.0 -9999.0 780.738000 780.387000 779.984000 779.525000 778.996000 778.424000 777.807000 777.147000 776.477000 775.779000 775.088000 774.386000 773.683000 772.971000 772.266000 771.567000 770.935000 770.374000 769.905000 769.552000 769.158000 768.678000 768.058000 767.332000 766.536000 765.720000 764.938000 764.343000 763.794000 763.233000 762.622000 761.921000 761.149000 760.320000 759.588000 759.116000 758.535000 757.953000 757.514000 757.025000 756.448000 755.852000 755.246000 754.770000 754.064000 753.796000 753.593000 753.348000 753.126000 752.860000 752.641000 752.449000 752.440000 752.286000 752.166000 752.088000 751.687000 751.261000 750.836000 750.411000 750.000000 750.000000 750.000000 750.000000 750.000000 750.000000 750.000000 750.000000 750.125000 750.547000 750.969000 751.391000 -9999.0 -9999.0 -9999.0 -9999.0 -9999.0 -9999.0 -9999.0 -9999.0 -9999.0 -9999.0 -9999.0 -9999.0 -9999.0 -9999.0 -9999.0 -9999.0 -9999.0 -9999.0 -9999.0 -9999.0 -9999.0 -9999.0 -9999.0 -9999.0 -9999.0 -9999.0 -9999.0 -9999.0 -9999.0 -9999.0 -9999.0 -9999.0 -9999.0 -9999.0 -9999.0 -9999.0 -9999.0 -9999.0 -9999.0 -9999.0 -9999.0 -9999.0 -9999.0 -9999.0 -9999.0 -9999.0 -9999.0 -9999.0
-9999.0 -9999.0 -9999.0 -9999.0 -9999.0 -9999.0 -9999.0 -9999.0 -9999.0 -9999.0 -9999.0 -9999.0 -9999.0 -9999.0 -9999.0 -9999.0 -9999.0 -9999.0 -9999.0 -9999.0 -9999.0 -9999.0 -9999.0 -9999.0 -9999.0 -9999.0 -9999.0 -9999.0 -9999.0 -9999.0 -9999.0 -9999.0 777.298000 776.966000 776.606000 776.158000 775.668000 775.128000 774.538000 773.935000 773.290000 772.639000 771.963000 771.278000 770.590000 769.894000 769.228000 768.598000 768.158000 767.762000 767.385000 767.124000 766.750000 766.262000 765.670000 764.955000 764.303000 763.708000 763.099000 762.579000 762.038000 761.475000 760.860000 760.178000 759.495000 758.898000 758.224000 757.837000 757.472000 756.890000 756.489000 756.047000 755.488000 754.922000 754.486000 754.043000 753.469000 753.127000 752.964000 752.789000 752.585000 752.507000 752.327000 752.160000 752.030000 751.901000 751.813000 751.761000 751.534000 751.109000 750.683000 750.258000 750.000000 750.000000 750.000000 750.000000 750.000000 750.000000 750.000000 750.000000 750.358000 750.780000 751.202000 751.624000 752.046000 752.468000 -9999.0 -9999.0 -9999.0 -9999.0 -9999.0 -9999.0 -9999.0 -9999.0 -9999.0 -9999.0 -9999.0 -9999.0 -9999.0 -9999.0 -9999.0 -9999.0 -9999.0 -9999.0 -9999.0 -9999.0 -9999.0 -9999.0 -9999.0 -9999.0 -9999.0 -9999.0 -9999.0 -9999.0 -9999.0 -9999.0 -9999.0 -9999.0 -9999.0 -9999.0 -9999.0 -9999.0 -9999.0 -9999.0 -9999.0 -9999.0 -9999.0 -9999.0 -9999.0 -9999.0 -9999.0 -9999.0
-9999.0 -9999.0 -9999.0 -9999.0 -9999.0 -9999.0 -9999.0 -9999.0 -9999.0 -9999.0 -9999.0 -9999.0 -9999.0 -9999.0 -9999.0 -9999.0 -9999.0 -9999.0 -9999.0 -9999.0 -9999.0 -9999.0 -9999.0 -9999.0 -9999.0 -9999.0 -9999.0 -9999.0 -9999.0 -9999.0 -9999.0 -9999.0 773.832000 773.540000 773.187000 772.773000 772.338000 771.822000 771.294000 770.717000 770.108000 769.474000 768.834000 768.186000 767.516000 766.857000 766.258000 765.725000 765.349000 765.066000 764.886000 764.687000 764.358000 763.948000 763.413000 762.825000 762.284000 761.730000 761.218000 760.779000 760.268000 759.758000 759.244000 758.672000 757.999000 757.398000 756.860000 756.467000 756.236000 755.827000 755.464000 755.037000 754.581000 754.152000 753.669000 753.338000 752.763000 752.514000 752.378000 752.301000 752.107000 752.056000 751.892000 751.739000 751.612000 751.616000 751.520000 751.455000 751.381000 750.956000 750.530000 750.105000 750.000000 750.000000 750.000000 750.000000 750.000000 750.000000 750.000000 750.170000 750.592000 751.014000 751.436000 751.858000 752.280000 752.702000 753.124000 -9999.0 -9999.0 -9999.0 -9999.0 -9999.0 -9999.0 -9999.0 -9999.0 -9999.0 -9999.0 -9999.0 -9999.0 -9999.0 -9999.0 -9999.0 -9999.0 -9999.0 -9999.0 -9999.0 -9999.0 -9999.0 -9999.0 -9999.0 -9999.0 -9999.0 -9999.0 -9999.0 -9999.0 -9999.0 -9999.0 -9999.0 -9999.0 -9999.0 -9999.0 -9999.0 -9999.0 -9999.0 -9999.0 -9999.0 -9999.0 -9999.0 -9999.0 -9999.0 -9999.0 -9999.0
-9999.0 -9999.0 -9999.0 -9999.0 -9999.0 -9999.0 -9999.0 -9999.0 -9999.0 -9999.0 -9999.0 -9999.0 -9999.0 -9999.0 -9999.0 -9999.0 -9999.0 -9999.0 -9999.0 -9999.0 -9999.0 -9999.0 -9999.0 -9999.0 -9999.0 -9999.0 -9999.0 -9999.0 -9999.0 -9999.0 -9999.0 -9999.0 770.357000 770.082000 769.753000 769.392000 768.975000 768.515000 768.019000 767.486000 766.932000 766.317000 765.716000 765.088000 764.484000 763.951000 763.409000 763.097000 762.887000 762.651000 762.528000 762.344000 762.073000 761.712000 761.210000 760.673000 760.156000 759.825000 759.574000 759.299000 759.003000 758.435000 757.748000 757.194000 756.503000 755.901000 755.433000 755.098000 754.897000 754.720000 754.447000 754.104000 753.739000 753.296000 752.899000 752.633000 752.041000 751.919000 751.813000 751.728000 751.629000 751.513000 751.429000 751.324000 751.224000 751.272000 751.226000 751.205000 751.205000 750.803000 750.378000 750.000000 750.000000 750.000000 750.000000 750.000000 750.000000 750.000000 750.000000 750.404000 750.826000 751.248000 751.670000 752.092000 752.514000 752.936000 753.357000 753.779000 754.201000 -9999.0 -9999.0 -9999.0 -9999.0 -9999.0 -9999.0 -9999.0 -9999.0 -9999.0 -9999.0 -9999.0 -9999.0 -9999.0 -9999.0 -9999.0 -9999.0 -9999.0 -9999.0 -9999.0 -9999.0 -9999.0 -9999.0 -9999.0 -9999.0 -9999.0 -9999.0 -9999.0 -9999.0 -9999.0 -9999.0 -9999.0 -9999.0 -9999.0 -9999.0 -9999.0 -9999.0 -9999.0 -9999.0 -9999.0 -9999.0 -9999.0 -9999.0 -9999.0
-9999.0 -9999.0 -9999.0 -9999.0 -9999.0 -9999.0 -9999.0 -9999.0 -9999.0 -9999.0 -9999.0 -9999.0 -9999.0 -9999.0 -9999.0 -9999.0 -9999.0 -9999.0 -9999.0 -9999.0 -9999.0 -9999.0 -9999.0 -9999.0 -9999.0 -9999.0 -9999.0 -9999.0 -9999.0 -9999.0 -9999.0 -9999.0 766.868000 766.599000 766.291000 765.961000 765.581000 765.170000 764.723000 764.240000 763.717000 763.207000 762.631000 762.068000 761.550000 761.074000 760.699000 760.517000 760.368000 760.254000 760.156000 760.002000 759.875000 759.671000 759.433000 759.141000 758.873000 758.600000 758.349000 758.101000 757.822000 757.316000 756.422000 755.716000 755.024000 754.542000 754.238000 754.024000 753.846000 753.670000 753.436000 753.174000 752.819000 752.413000 752.129000 751.823000 751.395000 751.271000 751.144000 751.099000 751.045000 750.973000 750.986000 750.925000 750.876000 750.848000 750.842000 750.853000 750.878000 750.650000 750.225000 750.000000 750.000000 750.000000 750.000000 750.000000 750.000000 750.000000 750.216000 750.638000 751.060000 751.482000 751.903000 752.325000 752.747000 753.169000 753.591000 754.013000 754.435000 754.837000 -9999.0 -9999.0 -9999.0 -9999.0 -9999.0 -9999.0 -9999.0 -9999.0 -9999.0 -9999.0 -9999.0 -9999.0 -9999.0 -9999.0 -9999.0 -9999.0 -9999.0 -9999.0 -9999.0 -9999.0 -9999.0 -9999.0 -9999.0 -9999.0 -9999.0 -9999.0 -9999.0 -9999.0 -9999.0 -9999.0 -9999.0 -9999.0 -9999.0 -9999.0 -9999.0 -9999.0 -9999.0 -9999.0 -9999.0 -9999.0 -9999.0 -9999.0
-9999.0 -9999.0 -9999.0 -9999.0 -9999.0 -9999.0 -9999.0 -9999.0 -9999.0 -9999.0 -9999.0 -9999.0 -9999.0 -9999.0 -9999.0 -9999.0 -9999.0 -9999.0 -9999.0 -9999.0 -9999.0 -9999.0 -9999.0 -9999.0 -9999.0 -9999.0 -9999.0 -9999.0 -9999.0 -9999.0 -9999.0 -9999.0 763.375000 763.122000 762.841000 762.533000 762.197000 761.832000 761.440000 760.996000 760.541000 760.063000 759.709000 759.383000 759.121000 758.904000 758.760000 758.652000 758.701000 758.690000 758.649000 758.630000 758.510000 758.331000 758.188000 757.903000 757.640000 757.383000 757.124000 756.876000 756.625000 756.197000 755.303000 754.267000 753.771000 753.389000 753.179000 752.967000 752.794000 752.620000 752.426000 752.176000 751.860000 751.566000 751.293000 750.995000 750.649000 750.538000 750.475000 750.470000 750.492000 750.443000 750.442000 750.422000 750.418000 750.431000 750.513000 750.507000 750.550000 750.497000 750.072000 750.000000 750.000000 750.000000 750.000000 750.000000 750.000000 750.027000 750.449000 750.871000 751.293000 751.715000 752.137000 752.559000 752.981000 753.403000 753.825000 754.247000 754.542000 754.995000 755.000000 -9999.0 -9999.0 -9999.0 -9999.0 -9999.0 -9999.0 -9999.0 -9999.0 -9999.0 -9999.0 -9999.0 -9999.0 -9999.0 -9999.0 -9999.0 -9999.0 -9999.0 -9999.0 -9999.0 -9999.0 -9999.0 -9999.0 -9999.0 -9999.0 -9999.0 -9999.0 -9999.0 -9999.0 -9999.0 -9999.0 -9999.0 -9999.0 -9999.0 -9999.0 -9999.0 -9999.0 -9999.0 -9999.0 -9999.0 -9999.0 -9999.0
-9999.0 -9999.0 -9999.0 -9999.0 -9999.0 -9999.0 -9999.0 -9999.0 -9999.0 -9999.0 -9999.0 -9999.0 -9999.0 -9999.0 -9999.0 -9999.0 -9999.0 -9999.0 -9999.0 -9999.0 -9999.0 -9999.0 -9999.0 -9999.0 -9999.0 -9999.0 -9999.0 -9999.0 -9999.0 -9999.0 -9999.0 -9999.0 759.894000 759.679000 759.437000 759.186000 758.932000 758.631000 758.507000 758.501000 758.347000 758.055000 757.749000 757.459000 757.307000 757.155000 757.073000 757.058000 757.179000 757.187000 757.203000 757.215000 757.146000 756.992000 756.884000 756.666000 756.405000 756.156000 755.899000 755.651000 755.403000 755.078000 753.712000 752.798000 752.523000 752.236000 752.066000 751.895000 751.742000 751.569000 751.383000 751.156000 750.902000 750.685000 750.410000 750.167000 749.701000 749.518000 749.418000 749.484000 749.556000 749.553000 749.557000 749.628000 749.791000 750.013000 750.089000 750.167000 750.244000 750.322000 750.000000 750.000000 750.000000 750.000000 750.000000 750.000000 750.000000 750.261000 750.683000 751.105000 751.527000 751.949000 752.371000 752.793000 753.215000 753.480000 753.714000 754.159000 754.611000 755.000000 755.000000 755.000000 755.000000 -9999.0 -9999.0 -9999.0 -9999.0 -9999.0 -9999.0 -9999.0 -9999.0 -9999.0 -9999.0 -9999.0 -9999.0 -9999.0 -9999.0 -9999.0 -9999.0 -9999.0 -9999.0 -9999.0 -9999.0 -9999.0 -9999.0 -9999.0 -9999.0 -9999.0 -9999.0 -9999.0 -9999.0 -9999.0 -9999.0 -9999.0 -9999.0 -9999.0 -9999.0 -9999.0 -9999.0 -9999.0 -9999.0 -9999.0
-9999.0 -9999.0 -9999.0 -9999.0 -9999.0 -9999.0 -9999.0 -9999.0 -9999.0 -9999.0 -9999.0 -9999.0 -9999.0 -9999.0 -9999.0 -9999.0 -9999.0 -9999.0 -9999.0 -9999.0 -9999.0 -9999.0 -9999.0 -9999.0 -9999.0 -9999.0 -9999.0 -9999.0 -9999.0 -9999.0 -9999.0 -9999.0 756.708000 756.506000 756.298000 756.080000 755.866000 755.676000 755.876000 756.339000 756.300000 756.066000 755.791000 755.537000 755.420000 755.345000 755.375000 755.464000 755.600000 755.684000 755.758000 755.779000 755.778000 755.652000 755.545000 755.427000 755.171000 754.778000 754.161000 753.615000 753.017000 752.733000 751.945000 751.329000 751.274000 751.075000 750.937000 750.823000 750.690000 750.518000 750.334000 750.135000 749.847000 749.380000 748.992000 748.574000 747.991000 747.753000 747.604000 747.447000 747.442000 747.250000 747.144000 747.196000 747.411000 747.732000 748.184000 748.719000 749.317000 749.963000 750.000000 750.000000 750.000000 750.000000 750.000000 750.000000 750.073000 750.495000 750.917000 751.339000 751.761000 752.183000 752.424000 752.650000 752.887000 753.323000 753.759000 754.026000 754.386000 754.921000 755.000000 755.000000 755.000000 755.000000 755.000000 755.000000 755.000000 755.000000 -9999.0 -9999.0 -9999.0 -9999.0 -9999.0 -9999.0 -9999.0 -9999.0 -9999.0 -9999.0 -9999.0 -9999.0 -9999.0 -9999.0 -9999.0 -9999.0 -9999.0 -9999.0 -9999.0 -9999.0 -9999.0 -9999.0 -9999.0 -9999.0 -9999.0 -9999.0 -9999.0 -9999.0 -9999.0 -9999.0 -9999.0 -9999.0 -9999.0 -9999.0
-9999.0 -9999.0 -9999.0 -9999.0 -9999.0 -9999.0 -9999.0 -9999.0 -9999.0 -9999.0 -9999.0 -9999.0 -9999.0 -9999.0 -9999.0 -9999.0 -9999.0 -9999.0 -9999.0 -9999.0 -9999.0 -9999.0 -9999.0 -9999.0 -9999.0 -9999.0 -9999.0 -9999.0 -9999.0 -9999.0 -9999.0 -9999.0 754.069000 753.948000 753.802000 753.661000 753.443000 753.346000 753.385000 753.846000 753.810000 753.430000 753.002000 752.630000 752.426000 752.378000 752.420000 752.596000 752.697000 752.984000 753.071000 753.105000 753.108000 752.915000 752.589000 752.288000 752.001000 751.318000 751.026000 750.659000 750.353000 750.103000 749.893000 749.760000 749.707000 749.689000 749.601000 749.409000 749.110000 748.680000 748.236000 747.833000 747.442000 747.206000 747.054000 746.725000 746.281000 746.035000 745.790000 745.459000 745.195000 744.931000 744.815000 744.839000 745.033000 745.422000 745.891000 746.472000 747.111000 747.793000 748.529000 749.306000 750.000000 750.000000 750.000000 750.000000 750.307000 750.729000 751.151000 751.370000 751.592000 751.822000 752.060000 752.486000 752.836000 753.104000 753.369000 753.737000 754.272000 754.780000 755.000000 755.000000 755.000000 755.000000 755.000000 755.000000 755.000000 755.000000 755.000000 755.000000 755.000000 755.216000 755.621000 756.026000 756.431000 756.836000 757.240000 757.645000 758.050000 758.455000 -9999.0 -9999.0 -9999.0 -9999.0 -9999.0 -9999.0 -9999.0 -9999.0 -9999.0 -9999.0 -9999.0 -9999.0 -9999.0 -9999.0 -9999.0 -9999.0 -9999.0 -9999.0 -9999.0 -9999.0 -9999.0 -9999.0
-9999.0 -9999.0 -9999.0 -9999.0 -9999.0 -9999.0 -9999.0 -9999.0 -9999.0 -9999.0 -9999.0 -9999.0 -9999.0 -9999.0 -9999.0 -9999.0 -9999.0 -9999.0 -9999.0 -9999.0 -9999.0 -9999.0 -9999.0 -9999.0 -9999.0 -9999.0 -9999.0 -9999.0 -9999.0 -9999.0 -9999.0 -9999.0 -9999.0 751.945000 751.768000 751.586000 751.341000 751.167000 750.962000 750.820000 750.487000 750.048000 749.645000 749.314000 749.124000 749.054000 749.071000 749.133000 749.173000 749.226000 749.208000 749.205000 749.127000 749.015000 748.931000 748.734000 748.531000 748.371000 748.109000 747.914000 747.700000 747.525000 747.382000 747.275000 747.271000 747.306000 747.242000 746.964000 746.564000 746.077000 745.614000 745.260000 745.052000 744.969000 744.931000 744.864000 744.542000 744.334000 744.093000 743.800000 743.535000 743.302000 743.170000 743.177000 743.349000 743.603000 743.956000 744.423000 744.951000 745.680000 746.471000 747.298000 748.142000 748.952000 749.704000 750.108000 750.317000 750.533000 750.761000 750.996000 751.234000 751.645000 751.913000 752.181000 752.446000 752.711000 753.088000 753.620000 754.118000 754.486000 755.000000 755.000000 755.000000 755.000000 755.000000 755.000000 755.000000 755.000000 755.000000 755.000000 755.000000 755.200000 755.604000 756.009000 756.414000 756.819000 757.224000 757.629000 758.033000 758.438000 758.843000 759.207000 -9999.0 -9999.0 -9999.0 -9999.0 -9999.0 -9999.0 -9999.0 -9999.0 -9999.0 -9999.0 -9999.0 -9999.0 -9999.0 -9999.0 -9999.0 -9999.0 -9999.0 -9999.0 -9999.0 -9999.0
-9999.0 -9999.0 -9999.0 -9999.0 -9999.0 -9999.0 -9999.0 -9999.0 -9999.0 -9999.0 -9999.0 -9999.0 -9999.0 -9999.0 -9999.0 -9999.0 -9999.0 -9999.0 -9999.0 -9999.0 -9999.0 -9999.0 -9999.0 -9999.0 -9999.0 -9999.0 -9999.0 -9999.0 -9999.0 -9999.0 -9999.0 -9999.0 -9999.0 749.906000 749.556000 749.182000 748.789000 748.380000 747.963000 747.544000 747.124000 746.698000 746.291000 745.934000 745.644000 745.498000 745.501000 745.605000 745.720000 745.884000 745.951000 746.020000 746.054000 745.975000 745.917000 745.797000 745.650000 745.503000 745.332000 745.176000 745.020000 744.890000 744.772000 744.758000 744.797000 744.887000 744.745000 744.327000 743.827000 743.402000 743.079000 742.778000 742.694000 742.755000 742.795000 742.818000 742.709000 742.661000 742.452000 742.196000 741.931000 741.681000 741.548000 741.519000 741.641000 741.889000 742.233000 742.731000 743.282000 743.906000 744.563000 745.337000 746.271000 747.168000 747.948000 748.756000 749.709000 750.169000 750.407000 750.722000 750.990000 751.258000 751.524000 751.789000 752.054000 752.438000 752.958000 753.335000 753.637000 754.148000 754.638000 755.000000 755.000000 755.000000 755.000000 755.000000 755.000000 755.000000 755.000000 755.000000 755.000000 755.183000 755.588000 755.993000 756.397000 756.802000 757.207000 757.612000 758.017000 758.422000 758.826000 759.231000 759.636000 760.000000 -9999.0 -9999.0 -9999.0 -9999.0 -9999.0 -9999.0 -9999.0 -9999.0 -9999.0 -9999.0 -9999.0 -9999.0 -9999.0 -9999.0 -9999.0 -9999.0 -9999.0 -9999.0
-9999.0 -9999.0 -9999.0 -9999.0 -9999.0 -9999.0 -9999.0 -9999.0 -9999.0 -9999.0 -9999.0 -9999.0 -9999.0 -9999.0 -9999.0 -9999.0 -9999.0 -9999.0 -9999.0 -9999.0 -9999.0 -9999.0 -9999.0 -9999.0 -9999.0 -9999.0 -9999.0 -9999.0 -9999.0 -9999.0 -9999.0 -9999.0 -9999.0 746.513000 746.169000 745.793000 745.402000 744.997000 744.589000 744.178000 743.761000 743.350000 742.965000 742.622000 742.346000 742.133000 742.057000 741.989000 741.978000 742.088000 742.173000 742.261000 742.409000 742.428000 742.375000 742.326000 742.155000 741.967000 741.763000 741.555000 741.403000 741.360000 741.299000 741.325000 741.353000 741.364000 741.277000 741.026000 740.784000 740.580000 740.447000 740.375000 740.417000 740.531000 740.659000 740.772000 740.942000 740.976000 740.806000 740.594000 740.327000 740.079000 739.911000 739.821000 739.924000 740.167000 740.521000 741.050000 741.670000 742.310000 743.023000 743.756000 744.511000 745.384000 746.239000 747.176000 748.165000 749.202000 750.067000 750.336000 750.602000 750.867000 751.132000 751.397000 751.789000 752.260000 752.551000 752.843000 753.319000 753.721000 754.229000 754.570000 754.891000 755.000000 755.000000 755.000000 755.000000 755.000000 755.000000 755.000000 755.000000 755.166000 755.571000 755.976000 756.381000 756.786000 757.191000 757.595000 758.000000 758.405000 758.810000 759.215000 759.619000 760.000000 760.000000 760.000000 760.000000 760.000000 -9999.0 -9999.0 -9999.0 -9999.0 -9999.0 -9999.0 -9999.0 -9999.0 -9999.0 -9999.0 -9999.0 -9999.0 -9999.0 -9999.0
-9999.0 -9999.0 -9999.0 -9999.0 -9999.0 -9999.0 -9999.0 -9999.0 -9999.0 -9999.0 -9999.0 -9999.0 -9999.0 -9999.0 -9999.0 -9999.0 -9999.0 -9999.0 -9999.0 -9999.0 -9999.0 -9999.0 -9999.0 -9999.0 -9999.0 -9999.0 -9999.0 -9999.0 -9999.0 -9999.0 -9999.0 -9999.0 -9999.0 743.116000 742.782000 742.409000 742.020000 741.621000 741.216000 740.810000 740.409000 740.025000 739.658000 739.328000 739.033000 738.763000 738.565000 738.397000 738.321000 738.305000 738.379000 738.518000 738.661000 738.763000 738.789000 738.732000 738.616000 738.447000 738.300000 738.168000 738.088000 738.102000 738.113000 738.169000 738.200000 738.175000 738.095000 737.990000 737.881000 737.828000 737.763000 737.844000 737.991000 738.149000 738.383000 738.610000 738.937000 738.983000 738.894000 738.706000 738.375000 738.109000 737.978000 737.902000 738.048000 738.357000 738.834000 739.391000 740.059000 740.758000 741.483000 742.234000 743.005000 743.807000 744.662000 745.608000 746.620000 747.667000 748.730000 749.783000 750.210000 750.475000 750.740000 751.136000 751.476000 751.768000 752.060000 752.490000 752.803000 753.318000 753.640000 753.966000 754.273000 754.648000 755.000000 755.000000 755.000000 755.000000 755.000000 755.000000 755.000000 755.150000 755.555000 755.959000 756.364000 756.769000 757.174000 757.579000 757.984000 758.388000 758.793000 759.207000 759.630000 760.000000 760.000000 760.000000 760.000000 760.000000 760.000000 -9999.0 -9999.0 -9999.0 -9999.0 -9999.0 -9999.0 -9999.0 -9999.0 -9999.0 -9999.0 -9999.0 -9999.0 -9999.0
-9999.0 -9999.0 -9999.0 -9999.0 -9999.0 -9999.0 -9999.0 -9999.0 -9999.0 -9999.0 -9999.0 -9999.0 -9999.0 -9999.0 -9999.0 -9999.0 -9999.0 -9999.0 -9999.0 -9999.0 -9999.0 -9999.0 -9999.0 -9999.0 -9999.0 -9999.0 -9999.0 -9999.0 -9999.0 -9999.0 -9999.0 -9999.0 -9999.0 739.714000 739.387000 739.018000 738.633000 738.247000 737.849000 737.451000 737.068000 736.683000 736.307000 735.942000 735.611000 735.329000 735.107000 734.934000 734.820000 734.816000 734.905000 735.038000 735.196000 735.303000 735.381000 735.352000 735.266000 735.154000 735.056000 735.008000 735.002000 735.036000 735.104000 735.176000 735.218000 735.190000 735.103000 735.021000 734.987000 735.032000 735.115000 735.282000 735.522000 735.765000 736.026000 736.275000 736.654000 736.734000 736.724000 736.557000 736.320000 736.121000 736.009000 735.984000 736.219000 736.619000 737.146000 737.810000 738.489000 739.220000 739.956000 740.698000 741.465000 742.234000 743.040000 744.037000 745.065000 746.123000 747.200000 748.246000 749.284000 750.082000 750.401000 750.693000 750.985000 751.277000 751.661000 751.955000 752.400000 752.741000 753.074000 753.357000 753.653000 754.137000 754.906000 755.000000 755.000000 755.000000 755.000000 755.000000 755.000000 755.133000 755.538000 755.943000 756.348000 756.753000 757.157000 757.562000 757.967000 758.372000 758.808000 759.156000 759.659000 760.000000 760.000000 760.000000 760.000000 760.000000 760.000000 760.000000 760.000000 760.000000 -9999.0 -9999.0 -9999.0 -9999.0 -9999.0 -9999.0 -9999.0 -9999.0 -9999.0 -9999.0
-9999.0 -9999.0 -9999.0 -9999.0 -9999.0 -9999.0 -9999.0 -9999.0 -9999.0 -9999.0 -9999.0 -9999.0 -9999.0 -9999.0 -9999.0 -9999.0 -9999.0 -9999.0 -9999.0 -9999.0 -9999.0 -9999.0 -9999.0 -9999.0 -9999.0 -9999.0 -9999.0 -9999.0 -9999.0 -9999.0 -9999.0 -9999.0 -9999.0 736.292000 735.971000 735.609000 735.240000 734.861000 734.484000 734.099000 733.715000 733.333000 732.956000 732.609000 732.309000 732.074000 731.910000 731.821000 731.762000 731.778000 731.871000 731.986000 732.114000 732.190000 732.225000 732.200000 732.120000 732.033000 731.972000 731.946000 731.946000 731.984000 732.043000 732.106000 732.164000 732.174000 732.141000 732.260000 732.331000 732.461000 732.659000 732.855000 733.101000 733.372000 733.632000 733.888000 734.308000 734.422000 734.411000 734.339000 734.213000 734.006000 734.002000 734.126000 734.379000 734.925000 735.546000 736.228000 736.950000 737.680000 738.413000 739.140000 739.865000 740.626000 741.444000 742.429000 743.462000 744.567000 745.671000 746.709000 747.770000 748.829000 749.732000 750.201000 750.493000 750.832000 751.126000 751.483000 751.847000 752.144000 752.445000 752.733000 753.049000 753.731000 754.500000 755.000000 755.000000 755.000000 755.000000 755.000000 755.000000 755.117000 755.521000 755.926000 756.331000 756.736000 757.141000 757.546000 757.958000 758.294000 758.701000 759.199000 759.616000 760.000000 760.000000 760.000000 760.000000 760.000000 760.000000 760.000000 760.000000 -9999.0 -9999.0 -9999.0 -9999.0 -9999.0 -9999.0 -9999.0 -9999.0 -9999.0 -9999.0 -9999.0
-9999.0 -9999.0 -9999.0 -9999.0 -9999.0 -9999.0 -9999.0 -9999.0 -9999.0 -9999.0 -9999.0 -9999.0 -9999.0 -9999.0 -9999.0 -9999.0 -9999.0 -9999.0 -9999.0 -9999.0 -9999.0 -9999.0 -9999.0 -9999.0 -9999.0 -9999.0 -9999.0 -9999.0 -9999.0 -9999.0 -9999.0 -9999.0 -9999.0 732.923000 732.611000 732.254000 731.883000 731.500000 731.119000 730.733000 730.348000 729.968000 729.615000 729.290000 729.059000 728.887000 728.760000 728.727000 728.736000 728.774000 728.851000 728.950000 729.024000 729.099000 729.094000 729.062000 728.994000 728.941000 728.902000 728.887000 728.895000 728.921000 728.970000 729.026000 729.108000 729.217000 729.310000 729.484000 729.688000 729.928000 730.185000 730.442000 730.704000 730.965000 731.210000 731.443000 731.807000 731.931000 731.961000 731.981000 731.966000 731.913000 731.966000 732.239000 732.592000 733.133000 733.817000 734.597000 735.411000 736.135000 736.868000 737.565000 738.262000 739.003000 739.814000 740.759000 741.842000 742.960000 744.080000 745.245000 746.305000 747.360000 748.277000 749.141000 750.002000 750.297000 750.591000 750.951000 751.251000 751.554000 751.822000 752.076000 752.555000 753.324000 754.210000 755.000000 755.000000 755.000000 755.000000 755.000000 755.000000 755.100000 755.505000 755.910000 756.314000 756.719000 757.124000 757.548000 757.741000 758.242000 758.568000 759.040000 759.640000 760.000000 760.000000 760.000000 760.000000 760.000000 760.000000 760.000000 760.000000 -9999.0 -9999.0 -9999.0 -9999.0 -9999.0 -9999.0 -9999.0 -9999.0 -9999.0 -9999.0 -9999.0
-9999.0 -9999.0 -9999.0 -9999.0 -9999.0 -9999.0 -9999.0 -9999.0 -9999.0 -9999.0 -9999.0 -9999.0 -9999.0 -9999.0 -9999.0 -9999.0 -9999.0 -9999.0 -9999.0 -9999.0 -9999.0 -9999.0 -9999.0 -9999.0 -9999.0 -9999.0 -9999.0 -9999.0 -9999.0 -9999.0 -9999.0 -9999.0 -9999.0 729.603000 729.388000 729.084000 728.825000 728.538000 728.214000 727.764000 727.222000 726.786000 726.354000 726.013000 725.858000 725.763000 725.728000 725.730000 725.754000 725.788000 725.831000 725.886000 725.919000 725.951000 725.951000 725.927000 725.899000 725.872000 725.853000 725.844000 725.843000 725.853000 725.892000 725.951000 726.122000 726.345000 726.537000 726.794000 727.053000 727.309000 727.574000 727.841000 728.108000 728.362000 728.593000 728.807000 729.174000 729.324000 729.441000 729.549000 729.628000 729.792000 730.039000 730.350000 730.805000 731.335000 731.997000 732.638000 733.434000 734.414000 735.289000 735.986000 736.633000 737.330000 738.166000 739.052000 740.214000 741.282000 742.433000 743.458000 744.770000 745.890000 746.822000 747.678000 748.519000 749.339000 750.055000 750.361000 750.649000 750.926000 751.194000 751.450000 752.148000 753.086000 754.146000 754.806000 755.000000 755.000000 755.000000 755.000000 755.000000 755.083000 755.488000 755.893000 756.298000 756.708000 756.958000 757.285000 757.685000 757.881000 758.464000 758.860000 759.487000 760.000000 760.000000 760.000000 760.000000 760.000000 760.000000 760.000000 -9999.0 -9999.0 -9999.0 -9999.0 -9999.0 -9999.0 -9999.0 -9999.0 -9999.0 -9999.0 -9999.0 -9999.0
-9999.0 -9999.0 -9999.0 -9999.0 -9999.0 -9999.0 -9999.0 -9999.0 -9999.0 -9999.0 -9999.0 -9999.0 -9999.0 -9999.0 -9999.0 -9999.0 -9999.0 -9999.0 -9999.0 -9999.0 -9999.0 -9999.0 -9999.0 -9999.0 -9999.0 -9999.0 -9999.0 -9999.0 -9999.0 -9999.0 -9999.0 -9999.0 -9999.0 726.497000 726.403000 726.291000 726.144000 725.887000 725.476000 724.939000 724.303000 723.785000 723.381000 723.100000 722.931000 722.864000 722.771000 722.683000 722.648000 722.639000 722.649000 722.629000 722.596000 722.556000 722.495000 722.461000 722.419000 722.389000 722.379000 722.395000 722.416000 722.460000 722.583000 722.720000 722.932000 723.241000 723.562000 723.910000 724.265000 724.601000 724.930000 725.179000 725.395000 725.590000 725.778000 725.927000 726.208000 726.350000 726.484000 726.656000 726.820000 727.044000 727.395000 727.842000 728.501000 729.302000 730.065000 730.680000 731.279000 732.114000 732.963000 733.920000 734.974000 735.608000 736.340000 737.267000 738.190000 739.434000 740.529000 741.466000 742.719000 744.192000 745.350000 746.191000 747.031000 747.852000 748.633000 749.333000 750.035000 750.297000 750.536000 750.973000 751.962000 752.388000 752.795000 753.548000 754.674000 755.000000 755.000000 755.000000 755.000000 755.067000 755.472000 755.876000 756.213000 756.369000 756.802000 756.994000 757.288000 757.817000 758.052000 758.711000 759.109000 759.952000 760.000000 760.000000 760.000000 760.000000 760.000000 -9999.0 -9999.0 -9999.0 -9999.0 -9999.0 -9999.0 -9999.0 -9999.0 -9999.0 -9999.0 -9999.0 -9999.0 -9999.0
-9999.0 -9999.0 -9999.0 -9999.0 -9999.0 -9999.0 -9999.0 -9999.0 -9999.0 -9999.0 -9999.0 -9999.0 -9999.0 -9999.0 -9999.0 -9999.0 -9999.0 -9999.0 -9999.0 -9999.0 -9999.0 -9999.0 -9999.0 -9999.0 -9999.0 -9999.0 -9999.0 -9999.0 -9999.0 -9999.0 -9999.0 -9999.0 -9999.0 723.235000 723.212000 723.164000 723.023000 722.712000 722.283000 721.744000 721.272000 720.922000 720.600000 720.348000 720.134000 719.954000 719.764000 719.614000 719.497000 719.393000 719.308000 719.230000 719.125000 719.002000 718.906000 718.794000 718.717000 718.688000 718.686000 718.743000 718.842000 718.949000 719.126000 719.365000 719.645000 719.970000 720.291000 720.614000 720.938000 721.234000 721.523000 721.803000 722.042000 722.250000 722.432000 722.595000 722.899000 723.114000 723.298000 723.530000 723.851000 724.219000 724.689000 725.200000 725.783000 726.460000 727.138000 727.971000 728.791000 729.625000 730.426000 731.220000 732.223000 733.159000 734.166000 735.143000 736.058000 737.014000 738.147000 739.309000 740.519000 741.784000 743.163000 744.520000 745.543000 746.308000 746.920000 747.612000 748.247000 748.939000 749.626000 750.169000 750.581000 750.986000 751.399000 752.291000 753.256000 753.886000 754.503000 755.000000 755.000000 755.050000 755.459000 755.623000 755.868000 756.111000 756.307000 756.713000 757.009000 757.243000 757.877000 758.123000 758.830000 759.349000 760.000000 760.000000 760.000000 760.000000 -9999.0 -9999.0 -9999.0 -9999.0 -9999.0 -9999.0 -9999.0 -9999.0 -9999.0 -9999.0 -9999.0 -9999.0 -9999.0 -9999.0
-9999.0 -9999.0 -9999.0 -9999.0 -9999.0 -9999.0 -9999.0 -9999.0 -9999.0 -9999.0 -9999.0 -9999.0 -9999.0 -9999.0 -9999.0 -9999.0 -9999.0 -9999.0 -9999.0 -9999.0 -9999.0 -9999.0 -9999.0 -9999.0 -9999.0 -9999.0 -9999.0 -9999.0 -9999.0 -9999.0 -9999.0 -9999.0 -9999.0 719.972000 719.897000 719.759000 719.554000 719.233000 718.864000 718.452000 718.048000 717.667000 717.325000 717.016000 716.755000 716.524000 716.332000 716.177000 716.044000 715.925000 715.809000 715.680000 715.523000 715.315000 715.134000 714.990000 714.890000 714.875000 714.932000 715.033000 715.220000 715.442000 715.688000 715.978000 716.279000 716.601000 716.931000 717.245000 717.550000 717.840000 718.103000 718.339000 718.545000 718.727000 718.894000 719.048000 719.388000 719.616000 719.844000 720.147000 720.496000 720.930000 721.471000 722.038000 722.714000 723.444000 724.169000 724.993000 725.807000 726.632000 727.510000 728.407000 729.356000 730.315000 731.311000 732.334000 733.383000 734.455000 735.526000 736.649000 737.868000 739.275000 740.761000 742.119000 743.478000 744.433000 745.200000 745.750000 746.377000 746.919000 747.549000 748.156000 748.753000 749.370000 750.004000 750.622000 751.250000 751.888000 752.505000 753.155000 753.802000 754.463000 755.033000 755.228000 755.420000 755.620000 755.965000 756.201000 756.435000 756.931000 757.177000 757.708000 758.071000 758.726000 759.313000 759.870000 -9999.0 -9999.0 -9999.0 -9999.0 -9999.0 -9999.0 -9999.0 -9999.0 -9999.0 -9999.0 -9999.0 -9999.0 -9999.0 -9999.0 -9999.0 -9999.0
-9999.0 -9999.0 -9999.0 -9999.0 -9999.0 -9999.0 -9999.0 -9999.0 -9999.0 -9999.0 -9999.0 -9999.0 -9999.0 -9999.0 -9999.0 -9999.0 -9999.0 -9999.0 -9999.0 -9999.0 -9999.0 -9999.0 -9999.0 -9999.0 -9999.0 -9999.0 -9999.0 -9999.0 -9999.0 -9999.0 -9999.0 -9999.0 -9999.0 716.614000 716.479000 716.289000 716.057000 715.744000 715.383000 715.005000 714.609000 714.225000 713.856000 713.532000 713.267000 713.025000 712.836000 712.689000 712.555000 712.433000 712.282000 712.107000 711.858000 711.592000 711.332000 711.130000 711.094000 711.130000 711.301000 711.508000 711.757000 712.032000 712.310000 712.603000 712.914000 713.235000 713.560000 713.869000 714.166000 714.422000 714.641000 714.847000 715.032000 715.200000 715.355000 715.513000 715.884000 716.140000 716.402000 716.762000 717.203000 717.687000 718.234000 718.870000 719.560000 720.301000 721.089000 721.927000 722.764000 723.639000 724.536000 725.467000 726.432000 727.415000 728.438000 729.482000 730.545000 731.634000 732.754000 733.925000 735.171000 736.491000 738.030000 739.724000 741.026000 742.064000 742.879000 743.614000 744.261000 744.885000 745.454000 746.032000 746.624000 747.229000 747.857000 748.509000 749.189000 749.891000 750.551000 751.216000 751.876000 752.567000 753.259000 753.983000 754.741000 755.158000 755.392000 755.655000 755.986000 756.230000 756.586000 756.969000 757.282000 757.880000 758.374000 -9999.0 -9999.0 -9999.0 -9999.0 -9999.0 -9999.0 -9999.0 -9999.0 -9999.0 -9999.0 -9999.0 -9999.0 -9999.0 -9999.0 -9999.0 -9999.0 -9999.0
-9999.0 -9999.0 -9999.0 -9999.0 -9999.0 -9999.0 -9999.0 -9999.0 -9999.0 -9999.0 -9999.0 -9999.0 -9999.0 -9999.0 -9999.0 -9999.0 -9999.0 -9999.0 -9999.0 -9999.0 -9999.0 -9999.0 -9999.0 -9999.0 -9999.0 -9999.0 -9999.0 -9999.0 -9999.0 -9999.0 -9999.0 -9999.0 -9999.0 713.271000 713.105000 712.879000 712.597000 712.277000 711.901000 711.480000 711.052000 710.635000 710.261000 709.940000 709.683000 709.477000 709.311000 709.181000 709.054000 708.903000 708.727000 708.465000 708.147000 707.773000 707.473000 707.284000 707.316000 707.546000 707.769000 708.069000 708.366000 708.655000 708.941000 709.242000 709.548000 709.872000 710.195000 710.518000 710.824000 711.001000 711.187000 711.362000 711.542000 711.679000 711.823000 711.985000 712.437000 712.705000 713.020000 713.460000 713.903000 714.437000 715.031000 715.700000 716.425000 717.201000 718.009000 718.861000 719.741000 720.640000 721.567000 722.526000 723.521000 724.526000 725.557000 726.622000 727.709000 728.811000 729.947000 731.124000 732.361000 733.688000 735.125000 736.698000 738.211000 739.590000 740.479000 741.282000 741.937000 742.562000 743.184000 743.808000 744.447000 745.085000 745.706000 746.352000 747.025000 747.724000 748.448000 749.196000 749.968000 750.671000 751.383000 752.118000 752.882000 753.658000 754.413000 755.040000 755.284000 755.517000 755.866000 756.114000 756.593000 756.881000 757.329000 -9999.0 -9999.0 -9999.0 -9999.0 -9999.0 -9999.0 -9999.0 -9999.0 -9999.0 -9999.0 -9999.0 -9999.0 -9999.0 -9999.0 -9999.0 -9999.0 -9999.0
-9999.0 -9999.0 -9999.0 -9999.0 -9999.0 -9999.0 -9999.0 -9999.0 -9999.0 -9999.0 -9999.0 -9999.0 -9999.0 -9999.0 -9999.0 -9999.0 -9999.0 -9999.0 -9999.0 -9999.0 -9999.0 -9999.0 -9999.0 -9999.0 -9999.0 -9999.0 -9999.0 -9999.0 -9999.0 -9999.0 -9999.0 -9999.0 -9999.0 709.948000 709.734000 709.472000 709.158000 708.804000 708.406000 707.986000 707.558000 707.153000 706.795000 706.481000 706.219000 706.009000 705.836000 705.702000 705.564000 705.390000 705.153000 704.839000 704.421000 703.969000 703.632000 703.559000 703.689000 704.001000 704.339000 704.679000 704.989000 705.287000 705.581000 705.879000 706.191000 706.509000 706.833000 707.122000 707.399000 707.617000 707.750000 707.861000 708.036000 708.153000 708.303000 708.492000 708.990000 709.327000 709.708000 710.153000 710.658000 711.224000 711.849000 712.549000 713.295000 714.109000 714.949000 715.825000 716.725000 717.662000 718.622000 719.602000 720.607000 721.646000 722.699000 723.768000 724.868000 725.995000 727.142000 728.326000 729.550000 730.867000 732.256000 733.674000 735.110000 736.524000 737.565000 738.617000 739.547000 740.239000 740.864000 741.496000 742.147000 742.798000 743.470000 744.155000 744.856000 745.557000 746.280000 747.029000 747.805000 748.607000 749.435000 750.253000 751.023000 751.806000 752.572000 753.306000 753.927000 754.519000 755.012000 755.259000 755.580000 755.912000 756.255000 -9999.0 -9999.0 -9999.0 -9999.0 -9999.0 -9999.0 -9999.0 -9999.0 -9999.0 -9999.0 -9999.0 -9999.0 -9999.0 -9999.0 -9999.0 -9999.0 -9999.0
-9999.0 -9999.0 -9999.0 -9999.0 -9999.0 -9999.0 -9999.0 -9999.0 -9999.0 -9999.0 -9999.0 -9999.0 -9999.0 -9999.0 -9999.0 -9999.0 -9999.0 -9999.0 -9999.0 -9999.0 -9999.0 -9999.0 -9999.0 -9999.0 -9999.0 -9999.0 -9999.0 -9999.0 -9999.0 -9999.0 -9999.0 -9999.0 -9999.0 706.574000 706.322000 706.034000 705.697000 705.336000 704.935000 704.504000 704.090000 703.696000 703.337000 703.017000 702.748000 702.524000 702.344000 702.185000 702.010000 701.769000 701.446000 701.057000 700.593000 700.084000 699.835000 699.936000 700.238000 700.621000 700.998000 701.335000 701.646000 701.928000 702.211000 702.511000 702.823000 703.143000 703.443000 703.711000 703.971000 704.231000 704.327000 704.427000 704.526000 704.626000 704.785000 704.974000 705.582000 705.977000 706.412000 706.888000 707.417000 708.023000 708.697000 709.414000 710.195000 711.027000 711.915000 712.806000 713.743000 714.700000 715.678000 716.694000 717.717000 718.767000 719.845000 720.934000 722.034000 723.164000 724.334000 725.542000 726.762000 728.029000 729.333000 730.688000 732.063000 733.409000 734.693000 735.800000 736.790000 737.553000 738.314000 739.087000 739.825000 740.518000 741.196000 741.893000 742.605000 743.334000 744.083000 744.858000 745.642000 746.451000 747.289000 748.149000 749.042000 749.969000 750.762000 751.558000 752.209000 752.831000 753.371000 753.874000 754.311000 754.740000 -9999.0 -9999.0 -9999.0 -9999.0 -9999.0 -9999.0 -9999.0 -9999.0 -9999.0 -9999.0 -9999.0 -9999.0 -9999.0 -9999.0 -9999.0 -9999.0 -9999.0 -9999.0
-9999.0 -9999.0 -9999.0 -9999.0 -9999.0 -9999.0 -9999.0 -9999.0 -9999.0 -9999.0 -9999.0 -9999.0 -9999.0 -9999.0 -9999.0 -9999.0 -9999.0 -9999.0 -9999.0 -9999.0 -9999.0 -9999.0 -9999.0 -9999.0 -9999.0 -9999.0 -9999.0 -9999.0 -9999.0 -9999.0 -9999.0 -9999.0 -9999.0 703.160000 702.892000 702.570000 702.227000 701.841000 701.448000 701.038000 700.635000 700.246000 699.877000 699.540000 699.268000 699.043000 698.844000 698.651000 698.441000 698.177000 697.823000 697.354000 696.853000 696.375000 696.230000 696.572000 696.890000 697.312000 697.679000 697.995000 698.290000 698.568000 698.845000 699.144000 699.452000 699.775000 700.083000 700.360000 700.580000 700.728000 700.822000 700.899000 700.990000 701.116000 701.292000 701.542000 702.229000 702.636000 703.121000 703.643000 704.201000 704.822000 705.542000 706.289000 707.100000 707.953000 708.865000 709.818000 710.777000 711.751000 712.754000 713.778000 714.827000 715.895000 716.984000 718.089000 719.202000 720.317000 721.461000 722.647000 723.895000 725.216000 726.496000 727.772000 729.035000 730.292000 731.592000 732.773000 733.848000 734.871000 735.692000 736.478000 737.259000 738.035000 738.804000 739.595000 740.354000 741.090000 741.844000 742.618000 743.421000 744.269000 745.138000 746.008000 746.906000 747.833000 748.781000 749.755000 750.539000 751.181000 751.726000 752.261000 752.727000 753.167000 -9999.0 -9999.0 -9999.0 -9999.0 -9999.0 -9999.0 -9999.0 -9999.0 -9999.0 -9999.0 -9999.0 -9999.0 -9999.0 -9999.0 -9999.0 -9999.0 -9999.0 -9999.0
-9999.0 -9999.0 -9999.0 -9999.0 -9999.0 -9999.0 -9999.0 -9999.0 -9999.0 -9999.0 -9999.0 -9999.0 -9999.0 -9999.0 -9999.0 -9999.0 -9999.0 -9999.0 -9999.0 -9999.0 -9999.0 -9999.0 -9999.0 -9999.0 -9999.0 -9999.0 -9999.0 -9999.0 -9999.0 -9999.0 -9999.0 -9999.0 -9999.0 699.773000 699.451000 699.130000 698.745000 698.366000 697.962000 697.540000 697.124000 696.716000 696.350000 696.029000 695.752000 695.548000 695.351000 695.157000 694.922000 694.648000 694.328000 693.941000 693.667000 693.363000 693.293000 693.510000 693.747000 694.079000 694.369000 694.646000 694.923000 695.205000 695.485000 695.781000 696.088000 696.406000 696.686000 696.924000 697.102000 697.221000 697.311000 697.367000 697.400000 697.538000 697.762000 698.051000 698.851000 699.323000 699.846000 700.402000 700.979000 701.605000 702.322000 703.102000 703.965000 704.880000 705.813000 706.793000 707.780000 708.791000 709.826000 710.859000 711.916000 713.002000 714.113000 715.251000 716.374000 717.504000 718.609000 719.713000 720.870000 722.117000 723.451000 724.840000 726.081000 727.293000 728.494000 729.680000 730.843000 731.991000 732.913000 733.858000 734.690000 735.492000 736.287000 737.090000 737.908000 738.732000 739.565000 740.376000 741.180000 742.003000 742.888000 743.793000 744.748000 745.684000 746.621000 747.564000 748.511000 749.374000 750.122000 750.653000 751.139000 751.591000 -9999.0 -9999.0 -9999.0 -9999.0 -9999.0 -9999.0 -9999.0 -9999.0 -9999.0 -9999.0 -9999.0 -9999.0 -9999.0 -9999.0 -9999.0 -9999.0 -9999.0 -9999.0
-9999.0 -9999.0 -9999.0 -9999.0 -9999.0 -9999.0 -9999.0 -9999.0 -9999.0 -9999.0 -9999.0 -9999.0 -9999.0 -9999.0 -9999.0 -9999.0 -9999.0 -9999.0 -9999.0 -9999.0 -9999.0 -9999.0 -9999.0 -9999.0 -9999.0 -9999.0 -9999.0 -9999.0 -9999.0 -9999.0 -9999.0 -9999.0 -9999.0 696.425000 696.086000 695.726000 695.326000 694.911000 694.493000 694.073000 693.651000 693.235000 692.867000 692.546000 692.290000 692.088000 691.919000 691.762000 691.594000 691.417000 691.198000 690.977000 690.870000 690.732000 690.713000 690.795000 690.862000 691.021000 691.155000 691.303000 691.413000 691.574000 691.728000 692.000000 692.253000 692.466000 692.766000 693.028000 693.222000 693.373000 693.539000 693.638000 693.663000 693.851000 694.081000 694.484000 695.459000 695.951000 696.467000 697.026000 697.624000 698.283000 699.026000 699.866000 700.758000 701.699000 702.673000 703.696000 704.759000 705.783000 706.815000 707.850000 708.960000 710.089000 711.193000 712.315000 713.477000 714.665000 715.818000 716.921000 718.005000 719.074000 720.193000 721.501000 722.824000 724.146000 725.410000 726.544000 727.744000 728.957000 730.122000 731.105000 732.041000 732.886000 733.746000 734.592000 735.433000 736.266000 737.107000 737.958000 738.826000 739.713000 740.602000 741.504000 742.435000 743.396000 744.396000 745.374000 746.299000 747.179000 748.009000 748.728000 749.424000 750.018000 -9999.0 -9999.0 -9999.0 -9999.0 -9999.0 -9999.0 -9999.0 -9999.0 -9999.0 -9999.0 -9999.0 -9999.0 -9999.0 -9999.0 -9999.0 -9999.0 -9999.0 -9999.0
-9999.0 -9999.0 -9999.0 -9999.0 -9999.0 -9999.0 -9999.0 -9999.0 -9999.0 -9999.0 -9999.0 -9999.0 -9999.0 -9999.0 -9999.0 -9999.0 -9999.0 -9999.0 -9999.0 -9999.0 -9999.0 -9999.0 -9999.0 -9999.0 -9999.0 -9999.0 -9999.0 -9999.0 -9999.0 -9999.0 -9999.0 -9999.0 -9999.0 -9999.0 692.754000 692.382000 691.978000 691.567000 691.126000 690.689000 690.247000 689.821000 689.432000 689.131000 688.909000 688.758000 688.620000 688.495000 688.373000 688.232000 688.106000 687.987000 687.882000 687.802000 687.791000 687.770000 687.804000 687.861000 687.904000 687.959000 688.017000 688.092000 688.185000 688.294000 688.423000 688.567000 688.725000 688.886000 689.053000 689.223000 689.394000 689.568000 689.733000 689.919000 690.125000 690.426000 691.326000 691.929000 692.599000 693.314000 694.061000 694.830000 695.594000 696.440000 697.362000 698.367000 699.414000 700.455000 701.489000 702.524000 703.657000 704.780000 705.863000 706.986000 708.137000 709.303000 710.464000 711.577000 712.789000 713.989000 715.186000 716.223000 717.221000 718.339000 719.422000 720.648000 721.950000 723.219000 724.463000 725.660000 726.842000 728.023000 729.204000 730.280000 731.166000 732.031000 732.900000 733.767000 734.640000 735.499000 736.370000 737.247000 738.174000 739.131000 740.107000 741.042000 742.015000 743.017000 744.010000 744.999000 745.851000 746.644000 747.332000 -9999.0 -9999.0 -9999.0 -9999.0 -9999.0 -9999.0 -9999.0 -9999.0 -9999.0 -9999.0 -9999.0 -9999.0 -9999.0 -9999.0 -9999.0 -9999.0 -9999.0 -9999.0 -9999.0
-9999.0 -9999.0 -9999.0 -9999.0 -9999.0 -9999.0 -9999.0 -9999.0 -9999.0 -9999.0 -9999.0 -9999.0 -9999.0 -9999.0 -9999.0 -9999.0 -9999.0 -9999.0 -9999.0 -9999.0 -9999.0 -9999.0 -9999.0 -9999.0 -9999.0 -9999.0 -9999.0 -9999.0 -9999.0 -9999.0 -9999.0 -9999.0 -9999.0 -9999.0 689.479000 689.129000 688.730000 688.289000 687.813000 687.334000 686.879000 686.447000 686.116000 685.863000 685.698000 685.582000 685.470000 685.365000 685.256000 685.145000 685.036000 684.929000 684.833000 684.753000 684.692000 684.649000 684.627000 684.622000 684.630000 684.650000 684.688000 684.748000 684.829000 684.933000 685.062000 685.216000 685.386000 685.560000 685.734000 685.908000 686.069000 686.211000 686.288000 686.383000 686.464000 686.435000 686.847000 687.333000 687.974000 689.008000 690.070000 690.948000 691.916000 692.848000 693.850000 694.865000 695.905000 696.982000 698.067000 699.161000 700.327000 701.465000 702.605000 703.773000 704.942000 706.083000 707.230000 708.379000 709.544000 710.692000 711.832000 712.983000 714.130000 715.227000 716.267000 717.364000 718.520000 719.736000 720.992000 722.250000 723.487000 724.731000 725.954000 727.116000 728.286000 729.364000 730.360000 731.242000 732.121000 733.016000 733.900000 734.783000 735.696000 736.641000 737.625000 738.622000 739.623000 740.616000 741.611000 742.606000 743.580000 744.517000 -9999.0 -9999.0 -9999.0 -9999.0 -9999.0 -9999.0 -9999.0 -9999.0 -9999.0 -9999.0 -9999.0 -9999.0 -9999.0 -9999.0 -9999.0 -9999.0 -9999.0 -9999.0 -9999.0 -9999.0
-9999.0 -9999.0 -9999.0 -9999.0 -9999.0 -9999.0 -9999.0 -9999.0 -9999.0 -9999.0 -9999.0 -9999.0 -9999.0 -9999.0 -9999.0 -9999.0 -9999.0 -9999.0 -9999.0 -9999.0 -9999.0 -9999.0 -9999.0 -9999.0 -9999.0 -9999.0 -9999.0 -9999.0 -9999.0 -9999.0 -9999.0 -9999.0 -9999.0 -9999.0 686.492000 686.084000 685.617000 685.111000 684.600000 684.113000 683.651000 683.261000 682.972000 682.751000 682.609000 682.472000 682.327000 682.212000 682.067000 681.954000 681.823000 681.706000 681.615000 681.525000 681.467000 681.428000 681.393000 681.393000 681.403000 681.420000 681.470000 681.523000 681.609000 681.701000 681.822000 681.961000 682.114000 682.275000 682.441000 682.607000 682.762000 682.888000 682.984000 683.059000 683.053000 683.083000 683.205000 683.441000 683.839000 684.466000 685.586000 687.004000 688.132000 689.201000 690.207000 691.229000 692.285000 693.405000 694.575000 695.740000 696.916000 698.108000 699.281000 700.462000 701.630000 702.779000 703.916000 705.049000 706.165000 707.285000 708.399000 709.510000 710.617000 711.725000 712.865000 714.009000 715.179000 716.357000 717.566000 718.826000 720.100000 721.378000 722.640000 723.922000 725.169000 726.326000 727.484000 728.517000 729.576000 730.543000 731.438000 732.362000 733.295000 734.198000 735.140000 736.146000 737.170000 738.198000 739.209000 740.220000 741.198000 742.170000 -9999.0 -9999.0 -9999.0 -9999.0 -9999.0 -9999.0 -9999.0 -9999.0 -9999.0 -9999.0 -9999.0 -9999.0 -9999.0 -9999.0 -9999.0 -9999.0 -9999.0 -9999.0 -9999.0 -9999.0
-9999.0 -9999.0 -9999.0 -9999.0 -9999.0 -9999.0 -9999.0 -9999.0 -9999.0 -9999.0 -9999.0 -9999.0 -9999.0 -9999.0 -9999.0 -9999.0 -9999.0 -9999.0 -9999.0 -9999.0 -9999.0 -9999.0 -9999.0 -9999.0 -9999.0 -9999.0 -9999.0 -9999.0 -9999.0 -9999.0 -9999.0 -9999.0 -9999.0 -9999.0 683.438000 683.022000 682.555000 682.065000 681.562000 681.071000 680.612000 680.232000 679.918000 679.708000 679.531000 679.371000 679.219000 679.066000 678.918000 678.767000 678.639000 678.496000 678.385000 678.294000 678.205000 678.166000 678.109000 678.093000 678.104000 678.122000 678.174000 678.236000 678.332000 678.433000 678.556000 678.704000 678.853000 679.010000 679.172000 679.330000 679.478000 679.611000 679.728000 679.822000 679.911000 679.998000 680.327000 680.574000 681.029000 681.606000 682.506000 683.469000 684.531000 685.667000 686.739000 687.793000 688.763000 689.773000 690.938000 692.186000 693.455000 694.730000 695.946000 697.139000 698.307000 699.447000 700.561000 701.664000 702.764000 703.855000 704.933000 706.021000 707.108000 708.194000 709.308000 710.452000 711.628000 712.856000 714.124000 715.419000 716.722000 718.026000 719.353000 720.658000 721.950000 723.240000 724.472000 725.635000 726.728000 727.785000 728.871000 729.979000 730.925000 731.867000 732.844000 733.788000 734.752000 735.782000 736.816000 737.840000 738.855000 -9999.0 -9999.0 -9999.0 -9999.0 -9999.0 -9999.0 -9999.0 -9999.0 -9999.0 -9999.0 -9999.0 -9999.0 -9999.0 -9999.0 -9999.0 -9999.0 -9999.0 -9999.0 -9999.0 -9999.0 -9999.0
-9999.0 -9999.0 -9999.0 -9999.0 -9999.0 -9999.0 -9999.0 -9999.0 -9999.0 -9999.0 -9999.0 -9999.0 -9999.0 -9999.0 -9999.0 -9999.0 -9999.0 -9999.0 -9999.0 -9999.0 -9999.0 -9999.0 -9999.0 -9999.0 -9999.0 -9999.0 -9999.0 -9999.0 -9999.0 -9999.0 -9999.0 -9999.0 -9999.0 -9999.0 680.367000 679.952000 679.535000 679.087000 678.631000 678.171000 677.738000 677.308000 676.967000 676.688000 676.452000 676.276000 676.113000 675.953000 675.798000 675.636000 675.483000 675.326000 675.182000 675.048000 674.935000 674.845000 674.779000 674.746000 674.746000 674.772000 674.823000 674.898000 674.999000 675.124000 675.266000 675.425000 675.593000 675.767000 675.944000 676.118000 676.281000 676.418000 676.549000 676.660000 676.795000 676.917000 677.333000 677.636000 678.098000 678.700000 679.508000 680.437000 681.462000 682.503000 683.519000 684.506000 685.503000 686.541000 687.609000 688.765000 689.982000 691.296000 692.593000 693.811000 694.986000 696.130000 697.222000 698.300000 699.353000 700.416000 701.480000 702.540000 703.598000 704.670000 705.771000 706.913000 708.089000 709.318000 710.610000 711.964000 713.323000 714.713000 716.066000 717.409000 718.756000 720.089000 721.382000 722.607000 723.835000 724.999000 726.078000 727.185000 728.303000 729.484000 730.551000 731.512000 732.497000 733.494000 734.480000 735.495000 736.508000 -9999.0 -9999.0 -9999.0 -9999.0 -9999.0 -9999.0 -9999.0 -9999.0 -9999.0 -9999.0 -9999.0 -9999.0 -9999.0 -9999.0 -9999.0 -9999.0 -9999.0 -9999.0 -9999.0 -9999.0 -9999.0
-9999.0 -9999.0 -9999.0 -9999.0 -9999.0 -9999.0 -9999.0 -9999.0 -9999.0 -9999.0 -9999.0 -9999.0 -9999.0 -9999.0 -9999.0 -9999.0 -9999.0 -9999.0 -9999.0 -9999.0 -9999.0 -9999.0 -9999.0 -9999.0 -9999.0 -9999.0 -9999.0 -9999.0 -9999.0 -9999.0 -9999.0 -9999.0 -9999.0 -9999.0 677.515000 677.135000 676.704000 676.265000 675.812000 675.351000 674.880000 674.379000 673.995000 673.639000 673.386000 673.180000 672.995000 672.808000 672.614000 672.421000 672.212000 672.020000 671.861000 671.694000 671.569000 671.483000 671.428000 671.403000 671.421000 671.466000 671.531000 671.614000 671.723000 671.850000 671.997000 672.162000 672.333000 672.524000 672.710000 672.894000 673.076000 673.225000 673.383000 673.529000 673.679000 673.862000 674.328000 674.676000 675.129000 675.749000 676.507000 677.387000 678.383000 679.406000 680.419000 681.411000 682.394000 683.393000 684.435000 685.556000 686.766000 687.996000 689.243000 690.474000 691.657000 692.799000 693.881000 694.929000 695.962000 696.992000 698.022000 699.054000 700.093000 701.151000 702.236000 703.366000 704.562000 705.820000 707.136000 708.517000 709.944000 711.373000 712.793000 714.194000 715.599000 716.953000 718.339000 719.646000 720.907000 722.161000 723.298000 724.411000 725.530000 726.710000 727.910000 729.137000 730.270000 731.266000 732.256000 733.251000 -9999.0 -9999.0 -9999.0 -9999.0 -9999.0 -9999.0 -9999.0 -9999.0 -9999.0 -9999.0 -9999.0 -9999.0 -9999.0 -9999.0 -9999.0 -9999.0 -9999.0 -9999.0 -9999.0 -9999.0 -9999.0 -9999.0
-9999.0 -9999.0 -9999.0 -9999.0 -9999.0 -9999.0 -9999.0 -9999.0 -9999.0 -9999.0 -9999.0 -9999.0 -9999.0 -9999.0 -9999.0 -9999.0 -9999.0 -9999.0 -9999.0 -9999.0 -9999.0 -9999.0 -9999.0 -9999.0 -9999.0 -9999.0 -9999.0 -9999.0 -9999.0 -9999.0 -9999.0 -9999.0 -9999.0 -9999.0 -9999.0 674.273000 673.806000 673.342000 672.830000 672.319000 671.821000 671.333000 670.923000 670.576000 670.304000 670.073000 669.866000 669.665000 669.439000 669.203000 668.975000 668.773000 668.541000 668.359000 668.227000 668.153000 668.141000 668.150000 668.185000 668.261000 668.329000 668.418000 668.526000 668.637000 668.775000 668.937000 669.086000 669.277000 669.464000 669.650000 669.847000 670.041000 670.222000 670.406000 670.601000 670.836000 671.401000 671.786000 672.262000 672.850000 673.524000 674.328000 675.294000 676.303000 677.314000 678.316000 679.312000 680.314000 681.353000 682.449000 683.573000 684.738000 685.935000 687.134000 688.285000 689.434000 690.505000 691.539000 692.539000 693.545000 694.555000 695.568000 696.592000 697.631000 698.690000 699.801000 700.983000 702.265000 703.648000 705.095000 706.553000 708.046000 709.543000 711.010000 712.450000 713.882000 715.315000 716.663000 718.011000 719.323000 720.562000 721.717000 722.860000 724.031000 725.223000 726.477000 727.676000 728.864000 730.047000 731.050000 -9999.0 -9999.0 -9999.0 -9999.0 -9999.0 -9999.0 -9999.0 -9999.0 -9999.0 -9999.0 -9999.0 -9999.0 -9999.0 -9999.0 -9999.0 -9999.0 -9999.0 -9999.0 -9999.0 -9999.0 -9999.0 -9999.0
-9999.0 -9999.0 -9999.0 -9999.0 -9999.0 -9999.0 -9999.0 -9999.0 -9999.0 -9999.0 -9999.0 -9999.0 -9999.0 -9999.0 -9999.0 -9999.0 -9999.0 -9999.0 -9999.0 -9999.0 -9999.0 -9999.0 -9999.0 -9999.0 -9999.0 -9999.0 -9999.0 -9999.0 -9999.0 -9999.0 -9999.0 -9999.0 -9999.0 -9999.0 -9999.0 671.263000 670.817000 670.336000 669.825000 669.357000 668.923000 668.512000 668.144000 667.829000 667.548000 667.267000 666.997000 666.756000 666.423000 666.138000 665.807000 665.543000 665.259000 665.059000 664.919000 664.845000 664.873000 664.935000 665.023000 665.119000 665.212000 665.308000 665.408000 665.508000 665.624000 665.740000 665.854000 666.015000 666.154000 666.311000 666.495000 666.671000 666.879000 667.111000 667.353000 667.665000 668.374000 668.821000 669.352000 669.935000 670.583000 671.332000 672.227000 673.190000 674.207000 675.224000 676.234000 677.244000 678.273000 679.336000 680.438000 681.581000 682.719000 683.808000 684.885000 685.962000 687.016000 688.083000 689.094000 690.094000 691.093000 692.102000 693.118000 694.136000 695.141000 696.232000 697.396000 698.680000 700.123000 701.627000 703.179000 704.762000 706.308000 707.819000 709.324000 710.791000 712.255000 713.717000 715.159000 716.510000 717.798000 719.071000 720.245000 721.423000 722.627000 723.842000 725.067000 726.294000 727.494000 -9999.0 -9999.0 -9999.0 -9999.0 -9999.0 -9999.0 -9999.0 -9999.0 -9999.0 -9999.0 -9999.0 -9999.0 -9999.0 -9999.0 -9999.0 -9999.0 -9999.0 -9999.0 -9999.0 -9999.0 -9999.0 -9999.0 -9999.0
-9999.0 -9999.0 -9999.0 -9999.0 -9999.0 -9999.0 -9999.0 -9999.0 -9999.0 -9999.0 -9999.0 -9999.0 -9999.0 -9999.0 -9999.0 -9999.0 -9999.0 -9999.0 -9999.0 -9999.0 -9999.0 -9999.0 -9999.0 -9999.0 -9999.0 -9999.0 -9999.0 -9999.0 -9999.0 -9999.0 -9999.0 -9999.0 -9999.0 -9999.0 -9999.0 668.413000 668.020000 667.585000 667.130000 666.683000 666.266000 665.865000 665.495000 665.151000 664.754000 664.329000 663.930000 663.534000 663.138000 662.783000 662.419000 662.118000 661.867000 661.677000 661.554000 661.485000 661.478000 661.509000 661.582000 661.670000 661.763000 661.873000 662.004000 662.119000 662.289000 662.442000 662.595000 662.807000 662.939000 663.140000 663.329000 663.487000 663.726000 663.930000 664.199000 664.484000 665.231000 665.695000 666.190000 666.754000 667.364000 668.103000 669.063000 670.072000 671.083000 672.106000 673.140000 674.174000 675.208000 676.261000 677.334000 678.434000 679.531000 680.604000 681.637000 682.622000 683.612000 684.594000 685.590000 686.573000 687.569000 688.614000 689.683000 690.763000 691.804000 692.862000 693.938000 695.061000 696.547000 698.139000 699.858000 701.496000 703.109000 704.695000 706.214000 707.751000 709.234000 710.727000 712.222000 713.684000 715.108000 716.422000 717.638000 718.834000 720.040000 721.263000 722.488000 723.720000 724.945000 -9999.0 -9999.0 -9999.0 -9999.0 -9999.0 -9999.0 -9999.0 -9999.0 -9999.0 -9999.0 -9999.0 -9999.0 -9999.0 -9999.0 -9999.0 -9999.0 -9999.0 -9999.0 -9999.0 -9999.0 -9999.0 -9999.0 -9999.0
-9999.0 -9999.0 -9999.0 -9999.0 -9999.0 -9999.0 -9999.0 -9999.0 -9999.0 -9999.0 -9999.0 -9999.0 -9999.0 -9999.0 -9999.0 -9999.0 -9999.0 -9999.0 -9999.0 -9999.0 -9999.0 -9999.0 -9999.0 -9999.0 -9999.0 -9999.0 -9999.0 -9999.0 -9999.0 -9999.0 -9999.0 -9999.0 -9999.0 -9999.0 -9999.0 665.679000 665.281000 664.831000 664.297000 663.760000 663.187000 662.586000 662.080000 661.508000 661.039000 660.622000 660.244000 659.900000 659.601000 659.297000 658.989000 658.708000 658.461000 658.284000 658.154000 658.118000 658.129000 658.166000 658.236000 658.316000 658.402000 658.508000 658.626000 658.767000 658.941000 659.136000 659.353000 659.584000 659.823000 660.065000 660.306000 660.532000 660.795000 661.045000 661.359000 661.685000 662.445000 662.851000 663.282000 663.745000 664.252000 664.758000 665.729000 666.790000 667.852000 668.944000 670.049000 671.099000 672.145000 673.192000 674.234000 675.294000 676.351000 677.377000 678.373000 679.340000 680.288000 681.252000 682.206000 683.142000 684.088000 685.043000 686.106000 687.233000 688.412000 689.632000 690.784000 691.906000 693.243000 694.740000 696.526000 698.321000 700.033000 701.648000 703.223000 704.725000 706.262000 707.790000 709.302000 710.790000 712.282000 713.709000 715.048000 716.255000 717.450000 718.646000 719.896000 721.117000 -9999.0 -9999.0 -9999.0 -9999.0 -9999.0 -9999.0 -9999.0 -9999.0 -9999.0 -9999.0 -9999.0 -9999.0 -9999.0 -9999.0 -9999.0 -9999.0 -9999.0 -9999.0 -9999.0 -9999.0 -9999.0 -9999.0 -9999.0 -9999.0
-9999.0 -9999.0 -9999.0 -9999.0 -9999.0 -9999.0 -9999.0 -9999.0 -9999.0 -9999.0 -9999.0 -9999.0 -9999.0 -9999.0 -9999.0 -9999.0 -9999.0 -9999.0 -9999.0 -9999.0 -9999.0 -9999.0 -9999.0 -9999.0 -9999.0 -9999.0 -9999.0 -9999.0 -9999.0 -9999.0 -9999.0 -9999.0 -9999.0 -9999.0 -9999.0 662.608000 662.128000 661.578000 661.019000 660.413000 659.814000 659.287000 658.791000 658.338000 657.952000 657.587000 657.195000 656.847000 656.482000 656.094000 655.737000 655.383000 655.065000 654.878000 654.777000 654.773000 654.832000 654.906000 654.986000 655.071000 655.158000 655.253000 655.360000 655.491000 655.671000 655.869000 656.092000 656.323000 656.564000 656.810000 657.063000 657.320000 657.591000 657.874000 658.238000 658.654000 659.602000 660.105000 660.537000 661.007000 661.516000 662.098000 662.880000 663.760000 664.639000 665.638000 666.715000 667.852000 669.002000 670.131000 671.155000 672.166000 673.182000 674.147000 675.115000 676.081000 677.033000 678.005000 678.928000 679.837000 680.801000 681.767000 682.719000 683.704000 684.837000 686.031000 687.284000 688.581000 689.781000 691.144000 692.958000 695.164000 696.937000 698.672000 700.274000 701.849000 703.368000 704.896000 706.435000 707.961000 709.477000 710.952000 712.290000 713.578000 714.808000 715.992000 717.163000 -9999.0 -9999.0 -9999.0 -9999.0 -9999.0 -9999.0 -9999.0 -9999.0 -9999.0 -9999.0 -9999.0 -9999.0 -9999.0 -9999.0 -9999.0 -9999.0 -9999.0 -9999.0 -9999.0 -9999.0 -9999.0 -9999.0 -9999.0 -9999.0 -9999.0
-9999.0 -9999.0 -9999.0 -9999.0 -9999.0 -9999.0 -9999.0 -9999.0 -9999.0 -9999.0 -9999.0 -9999.0 -9999.0 -9999.0 -9999.0 -9999.0 -9999.0 -9999.0 -9999.0 -9999.0 -9999.0 -9999.0 -9999.0 -9999.0 -9999.0 -9999.0 -9999.0 -9999.0 -9999.0 -9999.0 -9999.0 -9999.0 -9999.0 -9999.0 -9999.0 -9999.0 659.013000 658.541000 658.036000 657.511000 657.003000 656.479000 655.994000 655.535000 655.100000 654.673000 654.260000 653.860000 653.472000 653.090000 652.716000 652.363000 652.075000 651.872000 651.772000 651.769000 651.812000 651.874000 651.946000 652.011000 652.081000 652.153000 652.222000 652.322000 652.446000 652.643000 652.840000 653.056000 653.294000 653.539000 653.790000 654.039000 654.294000 654.560000 654.860000 655.206000 656.095000 656.609000 657.220000 657.875000 658.576000 659.337000 660.137000 660.981000 661.893000 662.788000 663.679000 664.609000 665.691000 666.849000 667.922000 668.971000 669.995000 670.953000 671.911000 672.868000 673.837000 674.810000 675.779000 676.721000 677.644000 678.501000 679.359000 680.242000 681.401000 682.562000 683.752000 684.990000 686.381000 687.638000 689.126000 691.075000 693.604000 695.709000 697.419000 698.991000 700.558000 702.101000 703.638000 705.157000 706.680000 708.160000 709.537000 710.802000 711.999000 713.209000 714.424000 -9999.0 -9999.0 -9999.0 -9999.0 -9999.0 -9999.0 -9999.0 -9999.0 -9999.0 -9999.0 -9999.0 -9999.0 -9999.0 -9999.0 -9999.0 -9999.0 -9999.0 -9999.0 -9999.0 -9999.0 -9999.0 -9999.0 -9999.0 -9999.0 -9999.0
-9999.0 -9999.0 -9999.0 -9999.0 -9999.0 -9999.0 -9999.0 -9999.0 -9999.0 -9999.0 -9999.0 -9999.0 -9999.0 -9999.0 -9999.0 -9999.0 -9999.0 -9999.0 -9999.0 -9999.0 -9999.0 -9999.0 -9999.0 -9999.0 -9999.0 -9999.0 -9999.0 -9999.0 -9999.0 -9999.0 -9999.0 -9999.0 -9999.0 -9999.0 -9999.0 -9999.0 656.102000 655.631000 655.160000 654.667000 654.158000 653.649000 653.155000 652.677000 652.221000 651.780000 651.357000 650.944000 650.540000 650.144000 649.756000 649.395000 649.088000 648.868000 648.760000 648.752000 648.783000 648.836000 648.892000 648.955000 648.995000 649.026000 649.063000 649.143000 649.249000 649.394000 649.575000 649.784000 650.012000 650.253000 650.500000 650.740000 650.979000 651.221000 651.494000 651.769000 652.589000 653.135000 653.784000 654.568000 655.406000 656.249000 657.172000 658.102000 659.091000 660.077000 660.985000 661.883000 662.843000 663.745000 664.745000 665.835000 666.883000 667.865000 668.767000 669.688000 670.669000 671.663000 672.652000 673.612000 674.514000 675.342000 676.156000 676.929000 677.947000 679.131000 680.428000 681.819000 683.180000 684.708000 686.268000 688.079000 690.071000 692.433000 694.480000 696.197000 697.771000 699.336000 700.880000 702.424000 703.909000 705.338000 706.714000 707.982000 709.186000 710.373000 -9999.0 -9999.0 -9999.0 -9999.0 -9999.0 -9999.0 -9999.0 -9999.0 -9999.0 -9999.0 -9999.0 -9999.0 -9999.0 -9999.0 -9999.0 -9999.0 -9999.0 -9999.0 -9999.0 -9999.0 -9999.0 -9999.0 -9999.0 -9999.0 -9999.0 -9999.0
-9999.0 -9999.0 -9999.0 -9999.0 -9999.0 -9999.0 -9999.0 -9999.0 -9999.0 -9999.0 -9999.0 -9999.0 -9999.0 -9999.0 -9999.0 -9999.0 -9999.0 -9999.0 -9999.0 -9999.0 -9999.0 -9999.0 -9999.0 -9999.0 -9999.0 -9999.0 -9999.0 -9999.0 -9999.0 -9999.0 -9999.0 -9999.0 -9999.0 -9999.0 -9999.0 -9999.0 653.247000 652.790000 652.326000 651.822000 651.311000 650.799000 650.299000 649.812000 649.333000 648.880000 648.436000 648.003000 647.585000 647.176000 646.781000 646.417000 646.087000 645.877000 645.753000 645.714000 645.744000 645.786000 645.826000 645.852000 645.864000 645.853000 645.862000 645.906000 645.988000 646.118000 646.289000 646.497000 646.724000 646.964000 647.211000 647.450000 647.673000 647.899000 648.111000 648.363000 649.091000 649.697000 650.392000 651.250000 652.273000 653.188000 654.170000 655.184000 656.191000 657.199000 658.181000 659.116000 660.009000 660.868000 661.782000 662.806000 663.776000 664.784000 665.674000 666.561000 667.532000 668.479000 669.516000 670.510000 671.387000 672.198000 672.893000 673.615000 674.520000 675.760000 677.198000 678.768000 680.335000 681.924000 683.591000 685.343000 687.346000 689.394000 691.428000 693.333000 695.019000 696.587000 698.142000 699.690000 701.177000 702.586000 703.904000 705.145000 706.345000 707.528000 -9999.0 -9999.0 -9999.0 -9999.0 -9999.0 -9999.0 -9999.0 -9999.0 -9999.0 -9999.0 -9999.0 -9999.0 -9999.0 -9999.0 -9999.0 -9999.0 -9999.0 -9999.0 -9999.0 -9999.0 -9999.0 -9999.0 -9999.0 -9999.0 -9999.0 -9999.0
-9999.0 -9999.0 -9999.0 -9999.0 -9999.0 -9999.0 -9999.0 -9999.0 -9999.0 -9999.0 -9999.0 -9999.0 -9999.0 -9999.0 -9999.0 -9999.0 -9999.0 -9999.0 -9999.0 -9999.0 -9999.0 -9999.0 -9999.0 -9999.0 -9999.0 -9999.0 -9999.0 -9999.0 -9999.0 -9999.0 -9999.0 -9999.0 -9999.0 -9999.0 -9999.0 -9999.0 650.419000 649.968000 649.487000 648.976000 648.451000 647.931000 647.416000 646.907000 646.423000 645.954000 645.496000 645.056000 644.624000 644.200000 643.794000 643.423000 643.090000 642.859000 642.712000 642.669000 642.681000 642.694000 642.723000 642.690000 642.643000 642.618000 642.602000 642.628000 642.701000 642.832000 643.002000 643.208000 643.440000 643.686000 643.934000 644.172000 644.392000 644.585000 644.765000 644.948000 645.545000 646.091000 646.883000 647.886000 649.022000 650.117000 651.111000 652.152000 653.197000 654.277000 655.319000 656.248000 657.137000 657.940000 658.740000 659.604000 660.509000 661.486000 662.449000 663.406000 664.344000 665.239000 666.190000 667.138000 668.085000 669.001000 669.648000 670.287000 671.388000 672.677000 674.250000 675.947000 677.603000 679.285000 680.956000 682.690000 684.541000 686.545000 688.519000 690.417000 692.154000 693.810000 695.382000 696.905000 698.390000 699.806000 701.114000 702.358000 703.532000 -9999.0 -9999.0 -9999.0 -9999.0 -9999.0 -9999.0 -9999.0 -9999.0 -9999.0 -9999.0 -9999.0 -9999.0 -9999.0 -9999.0 -9999.0 -9999.0 -9999.0 -9999.0 -9999.0 -9999.0 -9999.0 -9999.0 -9999.0 -9999.0 -9999.0 -9999.0 -9999.0
-9999.0 -9999.0 -9999.0 -9999.0 -9999.0 -9999.0 -9999.0 -9999.0 -9999.0 -9999.0 -9999.0 -9999.0 -9999.0 -9999.0 -9999.0 -9999.0 -9999.0 -9999.0 -9999.0 -9999.0 -9999.0 -9999.0 -9999.0 -9999.0 -9999.0 -9999.0 -9999.0 -9999.0 -9999.0 -9999.0 -9999.0 -9999.0 -9999.0 -9999.0 -9999.0 -9999.0 647.608000 647.136000 646.646000 646.122000 645.583000 645.052000 644.517000 643.996000 643.493000 643.001000 642.531000 642.078000 641.635000 641.204000 640.790000 640.409000 640.082000 639.830000 639.659000 639.615000 639.616000 639.604000 639.568000 639.505000 639.424000 639.359000 639.322000 639.339000 639.416000 639.544000 639.715000 639.922000 640.159000 640.418000 640.678000 640.934000 641.177000 641.418000 641.641000 641.893000 642.545000 643.026000 643.723000 644.593000 645.738000 646.853000 648.054000 649.105000 650.136000 651.194000 652.250000 653.241000 654.143000 654.996000 655.718000 656.521000 657.340000 658.264000 659.221000 660.254000 661.265000 662.324000 663.251000 663.988000 664.751000 665.697000 666.490000 667.491000 668.509000 669.864000 671.491000 673.246000 674.987000 676.672000 678.343000 680.053000 681.845000 683.731000 685.643000 687.566000 689.358000 691.050000 692.631000 694.122000 695.542000 696.945000 698.292000 699.570000 700.759000 -9999.0 -9999.0 -9999.0 -9999.0 -9999.0 -9999.0 -9999.0 -9999.0 -9999.0 -9999.0 -9999.0 -9999.0 -9999.0 -9999.0 -9999.0 -9999.0 -9999.0 -9999.0 -9999.0 -9999.0 -9999.0 -9999.0 -9999.0 -9999.0 -9999.0 -9999.0 -9999.0
-9999.0 -9999.0 -9999.0 -9999.0 -9999.0 -9999.0 -9999.0 -9999.0 -9999.0 -9999.0 -9999.0 -9999.0 -9999.0 -9999.0 -9999.0 -9999.0 -9999.0 -9999.0 -9999.0 -9999.0 -9999.0 -9999.0 -9999.0 -9999.0 -9999.0 -9999.0 -9999.0 -9999.0 -9999.0 -9999.0 -9999.0 -9999.0 -9999.0 -9999.0 -9999.0 -9999.0 -9999.0 644.317000 643.795000 643.247000 642.696000 642.139000 641.589000 641.060000 640.541000 640.043000 639.559000 639.090000 638.636000 638.200000 637.779000 637.388000 637.057000 636.800000 636.622000 636.540000 636.495000 636.430000 636.337000 636.243000 636.143000 636.073000 636.042000 636.061000 636.136000 636.265000 636.446000 636.674000 636.926000 637.195000 637.478000 637.800000 638.076000 638.335000 638.614000 638.924000 639.683000 640.205000 640.919000 641.792000 642.840000 643.934000 645.023000 646.147000 647.272000 648.256000 649.177000 650.008000 650.884000 651.685000 652.467000 653.280000 654.139000 655.133000 656.132000 657.194000 658.296000 659.418000 660.503000 661.346000 662.226000 663.004000 663.860000 664.840000 666.016000 667.405000 668.909000 670.603000 672.343000 674.045000 675.713000 677.411000 679.144000 680.959000 682.824000 684.690000 686.504000 688.255000 689.916000 691.399000 692.834000 694.141000 695.433000 696.696000 -9999.0 -9999.0 -9999.0 -9999.0 -9999.0 -9999.0 -9999.0 -9999.0 -9999.0 -9999.0 -9999.0 -9999.0 -9999.0 -9999.0 -9999.0 -9999.0 -9999.0 -9999.0 -9999.0 -9999.0 -9999.0 -9999.0 -9999.0 -9999.0 -9999.0 -9999.0 -9999.0 -9999.0
-9999.0 -9999.0 -9999.0 -9999.0 -9999.0 -9999.0 -9999.0 -9999.0 -9999.0 -9999.0 -9999.0 -9999.0 -9999.0 -9999.0 -9999.0 -9999.0 -9999.0 -9999.0 -9999.0 -9999.0 -9999.0 -9999.0 -9999.0 -9999.0 -9999.0 -9999.0 -9999.0 -9999.0 -9999.0 -9999.0 -9999.0 -9999.0 -9999.0 -9999.0 -9999.0 -9999.0 -9999.0 641.476000 640.933000 640.366000 639.794000 639.212000 638.645000 638.091000 637.554000 637.045000 636.558000 636.088000 635.632000 635.188000 634.761000 634.366000 634.020000 633.745000 633.548000 633.411000 633.293000 633.205000 633.072000 632.940000 632.832000 632.746000 632.704000 632.724000 632.812000 632.965000 633.158000 633.412000 633.698000 633.993000 634.319000 634.659000 635.024000 635.404000 635.799000 636.214000 637.215000 637.780000 638.439000 639.182000 640.093000 641.190000 642.292000 643.343000 644.430000 645.254000 646.088000 646.919000 647.657000 648.408000 649.135000 649.900000 650.763000 651.793000 652.896000 654.101000 655.340000 656.498000 657.658000 658.795000 659.687000 660.549000 661.396000 662.440000 663.698000 664.852000 666.265000 667.885000 669.692000 671.404000 673.043000 674.695000 676.432000 678.192000 680.005000 681.846000 683.691000 685.500000 687.178000 688.748000 690.152000 691.486000 692.723000 693.903000 -9999.0 -9999.0 -9999.0 -9999.0 -9999.0 -9999.0 -9999.0 -9999.0 -9999.0 -9999.0 -9999.0 -9999.0 -9999.0 -9999.0 -9999.0 -9999.0 -9999.0 -9999.0 -9999.0 -9999.0 -9999.0 -9999.0 -9999.0 -9999.0 -9999.0 -9999.0 -9999.0 -9999.0
-9999.0 -9999.0 -9999.0 -9999.0 -9999.0 -9999.0 -9999.0 -9999.0 -9999.0 -9999.0 -9999.0 -9999.0 -9999.0 -9999.0 -9999.0 -9999.0 -9999.0 -9999.0 -9999.0 -9999.0 -9999.0 -9999.0 -9999.0 -9999.0 -9999.0 -9999.0 -9999.0 -9999.0 -9999.0 -9999.0 -9999.0 -9999.0 -9999.0 -9999.0 -9999.0 -9999.0 -9999.0 638.642000 638.085000 637.468000 636.861000 636.263000 635.669000 635.102000 634.553000 634.034000 633.538000 633.068000 632.609000 632.162000 631.726000 631.320000 630.957000 630.666000 630.421000 630.261000 630.106000 629.965000 629.852000 629.742000 629.653000 629.579000 629.535000 629.549000 629.609000 629.723000 629.892000 630.139000 630.459000 630.791000 631.138000 631.508000 631.904000 632.356000 632.850000 633.412000 634.720000 635.393000 636.092000 636.837000 637.690000 638.655000 639.592000 640.537000 641.426000 642.234000 643.022000 643.738000 644.433000 645.105000 645.815000 646.568000 647.412000 648.457000 649.575000 650.835000 652.137000 653.479000 654.914000 656.189000 657.187000 658.158000 659.001000 660.217000 661.494000 662.693000 663.859000 665.054000 666.777000 668.563000 670.350000 671.955000 673.645000 675.382000 677.158000 678.989000 680.815000 682.644000 684.469000 686.129000 687.595000 688.905000 690.031000 -9999.0 -9999.0 -9999.0 -9999.0 -9999.0 -9999.0 -9999.0 -9999.0 -9999.0 -9999.0 -9999.0 -9999.0 -9999.0 -9999.0 -9999.0 -9999.0 -9999.0 -9999.0 -9999.0 -9999.0 -9999.0 -9999.0 -9999.0 -9999.0 -9999.0 -9999.0 -9999.0 -9999.0 -9999.0
-9999.0 -9999.0 -9999.0 -9999.0 -9999.0 -9999.0 -9999.0 -9999.0 -9999.0 -9999.0 -9999.0 -9999.0 -9999.0 -9999.0 -9999.0 -9999.0 -9999.0 -9999.0 -9999.0 -9999.0 -9999.0 -9999.0 -9999.0 -9999.0 -9999.0 -9999.0 -9999.0 -9999.0 -9999.0 -9999.0 -9999.0 -9999.0 -9999.0 -9999.0 -9999.0 -9999.0 -9999.0 -9999.0 635.254000 634.661000 634.065000 633.512000 632.811000 632.109000 631.532000 630.989000 630.497000 630.036000 629.725000 629.433000 629.145000 628.871000 628.620000 628.383000 628.208000 628.089000 627.898000 627.739000 627.600000 627.444000 627.354000 627.239000 627.182000 627.165000 627.178000 627.239000 627.377000 627.564000 627.801000 628.063000 628.355000 628.685000 629.045000 629.422000 629.877000 630.505000 631.952000 632.737000 633.555000 634.424000 635.300000 636.174000 637.046000 637.861000 638.603000 639.289000 639.919000 640.598000 641.279000 641.940000 642.608000 643.297000 644.032000 645.089000 646.227000 647.482000 648.838000 650.247000 651.636000 653.119000 654.664000 655.801000 656.779000 657.794000 659.212000 660.534000 661.654000 662.835000 664.036000 665.495000 667.240000 669.050000 670.801000 672.481000 674.277000 676.102000 677.921000 679.728000 681.537000 683.338000 685.111000 686.452000 687.566000 -9999.0 -9999.0 -9999.0 -9999.0 -9999.0 -9999.0 -9999.0 -9999.0 -9999.0 -9999.0 -9999.0 -9999.0 -9999.0 -9999.0 -9999.0 -9999.0 -9999.0 -9999.0 -9999.0 -9999.0 -9999.0 -9999.0 -9999.0 -9999.0 -9999.0 -9999.0 -9999.0 -9999.0 -9999.0
-9999.0 -9999.0 -9999.0 -9999.0 -9999.0 -9999.0 -9999.0 -9999.0 -9999.0 -9999.0 -9999.0 -9999.0 -9999.0 -9999.0 -9999.0 -9999.0 -9999.0 -9999.0 -9999.0 -9999.0 -9999.0 -9999.0 -9999.0 -9999.0 -9999.0 -9999.0 -9999.0 -9999.0 -9999.0 -9999.0 -9999.0 -9999.0 -9999.0 -9999.0 -9999.0 -9999.0 -9999.0 -9999.0 632.815000 632.224000 631.523000 630.834000 629.987000 629.445000 628.993000 628.655000 628.334000 628.031000 627.739000 627.447000 627.161000 626.885000 626.617000 626.373000 626.137000 625.951000 625.724000 625.531000 625.341000 625.172000 625.030000 624.877000 624.775000 624.709000 624.690000 624.750000 624.857000 625.015000 625.219000 625.487000 625.802000 626.161000 626.566000 627.010000 627.498000 628.049000 629.312000 630.031000 630.864000 631.741000 632.641000 633.554000 634.412000 635.229000 635.946000 636.620000 637.253000 637.848000 638.418000 638.973000 639.504000 640.034000 640.666000 641.581000 642.690000 643.921000 645.320000 646.651000 648.071000 649.631000 651.142000 652.697000 654.242000 655.441000 656.669000 657.818000 659.247000 660.486000 661.696000 662.900000 664.223000 665.768000 667.578000 669.457000 671.209000 673.091000 674.882000 676.631000 678.467000 680.283000 682.015000 683.632000 -9999.0 -9999.0 -9999.0 -9999.0 -9999.0 -9999.0 -9999.0 -9999.0 -9999.0 -9999.0 -9999.0 -9999.0 -9999.0 -9999.0 -9999.0 -9999.0 -9999.0 -9999.0 -9999.0 -9999.0 -9999.0 -9999.0 -9999.0 -9999.0 -9999.0 -9999.0 -9999.0 -9999.0 -9999.0 -9999.0
-9999.0 -9999.0 -9999.0 -9999.0 -9999.0 -9999.0 -9999.0 -9999.0 -9999.0 -9999.0 -9999.0 -9999.0 -9999.0 -9999.0 -9999.0 -9999.0 -9999.0 -9999.0 -9999.0 -9999.0 -9999.0 -9999.0 -9999.0 -9999.0 -9999.0 -9999.0 -9999.0 -9999.0 -9999.0 -9999.0 -9999.0 -9999.0 -9999.0 -9999.0 -9999.0 -9999.0 -9999.0 -9999.0 630.449000 629.743000 629.098000 628.367000 627.738000 627.441000 626.949000 626.636000 626.343000 626.040000 625.750000 625.461000 625.175000 624.719000 623.974000 623.048000 622.455000 622.518000 622.289000 622.312000 622.390000 622.216000 622.074000 621.885000 621.704000 621.630000 621.633000 621.696000 621.831000 622.014000 622.242000 622.504000 622.905000 623.178000 623.623000 624.312000 625.119000 625.671000 626.891000 627.557000 628.311000 629.103000 629.967000 630.902000 631.843000 632.730000 633.386000 634.040000 634.622000 635.192000 635.758000 636.294000 636.796000 637.320000 637.806000 638.337000 639.215000 640.118000 641.384000 642.778000 644.273000 645.781000 647.334000 648.933000 650.507000 652.015000 653.487000 654.940000 656.199000 657.557000 658.957000 660.349000 661.623000 662.957000 664.356000 666.014000 667.901000 669.720000 671.516000 673.259000 675.169000 676.978000 678.555000 680.267000 -9999.0 -9999.0 -9999.0 -9999.0 -9999.0 -9999.0 -9999.0 -9999.0 -9999.0 -9999.0 -9999.0 -9999.0 -9999.0 -9999.0 -9999.0 -9999.0 -9999.0 -9999.0 -9999.0 -9999.0 -9999.0 -9999.0 -9999.0 -9999.0 -9999.0 -9999.0 -9999.0 -9999.0 -9999.0 -9999.0
-9999.0 -9999.0 -9999.0 -9999.0 -9999.0 -9999.0 -9999.0 -9999.0 -9999.0 -9999.0 -9999.0 -9999.0 -9999.0 -9999.0 -9999.0 -9999.0 -9999.0 -9999.0 -9999.0 -9999.0 -9999.0 -9999.0 -9999.0 -9999.0 -9999.0 -9999.0 -9999.0 -9999.0 -9999.0 -9999.0 -9999.0 -9999.0 -9999.0 -9999.0 -9999.0 -9999.0 -9999.0 -9999.0 627.365000 626.692000 626.356000 625.993000 625.489000 625.192000 624.882000 624.445000 624.027000 623.263000 622.712000 621.865000 620.978000 619.802000 618.963000 618.315000 618.029000 618.172000 618.455000 618.882000 619.159000 619.239000 619.169000 618.966000 618.812000 618.757000 618.768000 618.838000 618.967000 619.132000 619.317000 619.517000 619.693000 619.876000 619.983000 620.141000 620.314000 621.075000 623.941000 625.109000 625.788000 626.534000 627.295000 628.265000 629.282000 630.244000 630.917000 631.591000 632.191000 632.672000 633.185000 633.629000 634.087000 634.533000 635.003000 635.476000 636.196000 636.868000 637.712000 638.767000 640.193000 641.767000 643.397000 645.065000 646.715000 648.257000 649.812000 651.326000 652.843000 654.370000 655.836000 657.302000 658.814000 660.316000 661.688000 663.112000 664.557000 666.319000 668.141000 669.724000 671.491000 673.222000 674.885000 -9999.0 -9999.0 -9999.0 -9999.0 -9999.0 -9999.0 -9999.0 -9999.0 -9999.0 -9999.0 -9999.0 -9999.0 -9999.0 -9999.0 -9999.0 -9999.0 -9999.0 -9999.0 -9999.0 -9999.0 -9999.0 -9999.0 -9999.0 -9999.0 -9999.0 -9999.0 -9999.0 -9999.0 -9999.0 -9999.0 -9999.0
-9999.0 -9999.0 -9999.0 -9999.0 -9999.0 -9999.0 -9999.0 -9999.0 -9999.0 -9999.0 -9999.0 -9999.0 -9999.0 -9999.0 -9999.0 -9999.0 -9999.0 -9999.0 -9999.0 -9999.0 -9999.0 -9999.0 -9999.0 -9999.0 -9999.0 -9999.0 -9999.0 -9999.0 -9999.0 -9999.0 -9999.0 -9999.0 -9999.0 -9999.0 -9999.0 -9999.0 -9999.0 -9999.0 -9999.0 624.154000 623.935000 623.716000 623.167000 622.793000 622.345000 621.596000 621.046000 620.187000 619.383000 618.509000 617.625000 616.619000 615.675000 614.981000 614.568000 614.632000 614.966000 615.455000 615.876000 616.143000 616.200000 616.148000 616.099000 616.092000 616.117000 616.200000 616.331000 616.492000 616.657000 616.824000 616.982000 617.108000 617.201000 617.356000 617.529000 618.003000 619.562000 620.887000 622.472000 623.711000 624.554000 625.408000 626.273000 627.132000 628.006000 628.883000 629.627000 630.157000 630.570000 630.986000 631.363000 631.758000 632.215000 632.683000 633.195000 633.753000 634.315000 634.967000 636.098000 637.603000 639.371000 641.166000 642.909000 644.571000 646.157000 647.734000 649.322000 650.907000 652.524000 654.142000 655.715000 657.257000 658.833000 660.351000 661.794000 663.224000 664.836000 666.506000 668.027000 669.417000 -9999.0 -9999.0 -9999.0 -9999.0 -9999.0 -9999.0 -9999.0 -9999.0 -9999.0 -9999.0 -9999.0 -9999.0 -9999.0 -9999.0 -9999.0 -9999.0 -9999.0 -9999.0 -9999.0 -9999.0 -9999.0 -9999.0 -9999.0 -9999.0 -9999.0 -9999.0 -9999.0 -9999.0 -9999.0 -9999.0 -9999.0 -9999.0
